ply
format ascii 1.0
comment ply file 
element vertex 1669
property float x
property float y
property float z
end_header
-0.170245 -0.371172 0.059225
-0.412066 -1.068868 -0.086968
-0.007912 -0.174749 0.102837
0.267072 -0.058385 0.021860
0.036058 0.195248 0.016202
-0.229197 0.319716 -0.004626
0.005702 -0.353986 -0.144438
0.110760 -0.048494 -0.211308
-0.068696 0.186844 0.102618
0.172846 -0.681539 0.082584
-0.106283 -0.296908 0.068892
0.026019 0.479933 0.105642
-0.083974 0.312431 -0.155791
-0.010895 0.318821 -0.052712
-0.102458 -0.486997 0.134171
-0.125881 -0.380348 0.140112
0.197131 0.172001 -0.097648
0.201488 -0.686974 0.125849
0.219584 0.159018 0.008811
0.420212 0.134733 -0.090158
0.123435 0.042825 -0.190388
-0.129939 0.023182 -0.165552
0.047374 0.247540 0.016646
-0.086261 -0.406062 -0.091826
0.330573 0.131052 -0.131570
0.142052 -0.359216 -0.110902
0.218091 -0.371766 0.033781
0.095993 -0.392927 -0.124523
0.451398 0.220290 0.021167
-0.217983 -0.465881 -0.090313
0.006047 0.255057 -0.182957
-0.188528 -0.429300 0.099670
0.284383 -0.381365 -0.061121
-0.477340 -0.979439 -0.013624
0.046190 -0.215175 -0.217449
0.441602 -0.792385 -0.026620
-0.531533 -1.133738 -0.120639
0.373032 0.166425 0.062867
-0.134760 0.223918 0.085326
0.202123 -0.027684 0.124872
-0.101078 0.153127 -0.101206
-0.661481 0.317253 -0.056325
0.312985 -0.753225 0.053040
0.458402 -1.087798 0.219459
-0.174097 0.090184 0.163974
0.008277 -0.098165 0.077358
-0.094800 0.080135 -0.194754
0.291168 -0.784484 -0.057508
0.044400 0.371170 0.053941
0.060937 -0.166460 0.187192
0.028021 -0.334141 0.000669
-0.350222 0.210367 -0.000579
0.246917 -0.383469 -0.040946
0.321194 -0.749916 -0.041584
-0.201880 0.167884 -0.065928
0.469094 -1.069165 0.063409
0.306816 0.111391 0.024351
-0.291535 -0.327459 -0.057258
0.424913 -1.013305 0.134365
-0.027737 -0.253323 -0.151765
-0.307559 -0.652204 0.073167
0.048812 0.553014 -0.106080
0.610788 0.163178 0.046481
-0.032484 -0.166724 -0.087077
-0.415200 -0.899498 -0.119951
-0.041873 -0.324312 0.025551
0.450915 -0.940215 -0.124340
0.024828 -0.427305 -0.147545
-0.211344 -0.097123 0.098392
-0.127358 -0.170575 -0.146312
0.408524 -0.730525 -0.094502
-0.662498 0.270818 -0.101477
0.007101 0.317641 -0.154382
-0.324969 -0.416892 -0.070295
0.184134 -0.620348 0.009547
0.343134 0.193692 -0.103708
-0.200326 0.254168 -0.154091
-0.255822 -0.763288 -0.139221
0.196170 -0.152373 0.022112
-0.148857 -0.207273 0.089936
0.186915 0.015036 -0.100596
-0.062111 -0.294528 -0.151315
-0.215649 -0.234427 -0.152494
0.029020 -0.197804 -0.246902
-0.002772 0.082707 0.026936
0.197180 -0.578088 0.100704
-0.711987 0.325098 -0.022816
-0.616850 -1.067401 0.035163
-0.200103 0.195096 0.073647
0.421983 -0.874770 -0.148057
-0.054998 -0.088495 0.094595
0.483792 -0.994582 -0.002535
-0.000251 0.043944 0.013620
-0.009826 0.148165 0.174104
-0.054772 -0.252469 0.001486
-0.020810 0.058620 -0.006115
-0.338712 -0.690477 -0.108342
0.611619 0.305412 -0.047639
0.189241 -0.520222 -0.014130
0.511532 -1.131545 0.100504
-0.003047 0.015040 -0.113230
-0.220227 0.266067 0.058410
-0.051173 -0.128776 0.073404
-0.325862 -0.687523 0.008214
0.060875 -0.124308 -0.097792
-0.019249 -0.225645 0.198701
0.717305 0.234631 -0.108211
-0.277552 -0.456933 -0.059555
0.224870 0.222647 -0.107819
0.115581 0.249423 0.048919
0.074838 -0.126993 0.003670
0.362863 -1.014376 -0.014481
0.486819 -1.132861 -0.051493
-0.160353 -0.634115 0.131683
0.085196 0.248400 -0.024424
0.208206 -0.184401 -0.054384
-0.131346 -0.228531 0.138993
-0.087802 0.541363 0.061480
-0.075366 -0.106851 -0.011145
-0.241595 -0.849353 -0.108324
-0.049512 -0.152623 0.114277
-0.038267 -0.215219 0.106890
-0.358509 -0.830433 -0.174627
0.022056 0.484735 0.185466
0.009191 -0.232365 -0.054341
-0.012429 -0.125978 0.188806
-0.282935 -0.785128 -0.063170
-0.117261 -0.323361 0.042165
-0.029790 0.155612 0.048224
-0.163128 -0.137138 0.057358
-0.021585 -0.132457 0.191726
-0.138955 -0.639322 0.101532
0.218722 -0.570434 -0.011967
0.043763 0.254618 0.126889
0.442813 -0.880122 -0.104019
-0.021262 0.070606 -0.008068
-0.100452 -0.389277 0.029378
0.046918 0.249985 0.104557
-0.800796 0.200744 -0.082462
0.090164 -0.239341 0.080053
0.127178 0.050204 0.143806
0.277775 -0.540748 0.024004
-0.351967 -0.751616 -0.070998
0.165055 -0.393981 -0.001084
-0.228559 0.198411 0.100579
-0.224241 0.278855 0.079934
-0.120870 -0.208728 0.147245
0.264485 -0.330482 -0.040381
0.080053 -0.077756 0.062030
-0.093674 0.031104 -0.003777
0.369989 -0.828113 -0.043079
-0.059319 -0.258239 -0.006938
-0.002226 -0.451820 -0.008859
-0.151879 -0.418447 0.094365
-0.040019 0.147371 0.055438
-0.276540 0.077986 0.000382
0.262286 -0.649238 0.141776
-0.109449 -0.114753 -0.172338
-0.049210 -0.283895 -0.030827
0.221990 0.068514 0.065419
-0.103227 -0.400558 -0.101806
0.059025 -0.097698 0.195374
0.007528 0.008096 -0.002287
0.174256 -0.015466 0.091099
-0.885643 0.184401 -0.123233
0.211026 -0.468454 0.164900
0.351136 -0.774065 0.083372
0.236272 -0.431400 0.106286
-0.092937 -0.360780 0.055430
0.309206 0.224298 -0.073689
0.202547 -0.413290 -0.148134
-0.317151 -0.693098 0.002347
0.542026 -0.984248 0.107512
-0.102956 -0.309764 0.182487
-0.318168 0.173695 -0.055252
-0.164965 -0.040834 0.019997
0.145453 -0.252122 -0.097506
-0.074720 -0.052540 0.032710
-0.006567 0.060927 0.001998
-0.027601 -0.356151 0.078012
-0.030528 -0.188546 0.066721
0.010607 -0.145203 0.037589
-0.125174 -0.366196 -0.067958
0.010326 0.130576 -0.155088
0.132621 -0.524464 0.029461
0.026995 -0.361887 0.164370
-0.176343 -0.251667 -0.067502
0.217573 0.027924 -0.014915
-0.013324 -0.518135 -0.104957
0.215554 -0.197765 -0.124305
-0.881023 0.255371 0.019673
-0.219355 -0.489693 0.202361
-0.156399 -0.661727 0.073142
-0.193708 0.106927 0.000332
0.153130 -0.437047 0.213728
0.776992 0.217312 0.079235
0.319409 0.152666 -0.029420
0.178328 -0.531081 -0.119186
0.086900 0.350136 0.153411
-0.821142 0.138683 -0.088219
0.224437 -0.014503 0.058106
0.368812 0.127016 0.025067
-0.093643 -0.142097 -0.039843
-0.224113 0.298711 -0.030810
-0.567297 -1.103667 -0.023153
0.123406 -0.528911 -0.003844
0.058073 -0.374130 0.048580
-0.187738 -0.406292 -0.084717
0.057890 -0.225080 -0.071926
0.043023 0.115580 -0.106451
-0.212587 -0.524107 -0.129334
0.009011 0.449986 -0.087611
-0.379964 -0.821635 -0.127142
0.502364 -0.828501 0.045567
0.058720 0.260586 -0.150414
-0.081868 0.346049 0.134774
0.307121 -0.745835 -0.025592
-0.327847 0.293664 -0.078595
-0.366789 -0.818645 0.071103
-0.437428 -1.122586 0.034098
0.467346 -1.080518 0.193673
-0.098862 -0.587056 0.062845
-0.079922 0.179546 0.074427
-0.188688 -0.347972 -0.023332
-0.155101 0.251692 0.032449
0.004979 0.259492 0.012806
0.080297 -0.018795 -0.069211
-0.089141 -0.419196 -0.009113
-0.123809 -0.158570 -0.141206
0.101456 0.203150 -0.050987
0.018857 -0.059379 -0.013588
0.326368 -0.850508 -0.100190
-0.440136 -1.035978 0.181605
-0.132805 -0.015787 0.176016
-0.596593 0.285673 -0.055944
0.473204 -0.972203 0.009138
0.158374 -0.433443 0.204103
0.194436 -0.052792 0.019224
-0.016064 -0.065202 -0.040345
-0.144510 -0.195224 0.005182
-0.355365 0.250378 -0.032574
-0.143926 0.091487 -0.051025
-0.256621 -0.687980 -0.055331
0.195586 -0.266345 -0.016663
-0.491902 -0.956003 -0.055953
-0.022052 -0.155794 -0.221324
-0.138876 -0.473019 0.072572
-0.509605 -0.881995 -0.116758
0.497321 0.293248 -0.116992
0.306511 -0.430746 0.052652
0.111392 0.409466 -0.049219
0.466218 -0.982938 -0.024190
-0.064590 -0.116755 0.104436
0.008121 -0.022645 0.137548
0.283552 -0.369266 -0.060808
0.146914 -0.098258 -0.001602
-0.251350 -0.170586 -0.029921
0.392768 -0.814101 0.044641
0.239838 0.156069 -0.094408
-0.019855 0.056352 0.189462
-0.213551 -0.479994 -0.005780
-0.023075 0.512366 0.158082
0.484451 -1.092783 -0.040089
-0.040370 0.079829 -0.092581
0.022134 0.200176 -0.053857
-0.207661 -0.192602 0.100883
-0.124530 -0.371854 -0.199848
-0.532839 -0.916432 -0.104094
0.041153 -0.384086 -0.127010
0.601544 -1.012375 -0.118686
-0.156267 -0.061120 -0.108659
0.151483 0.163273 0.030088
-0.115257 0.099986 -0.174796
-0.153552 -0.610653 -0.030102
-0.056237 0.048149 0.061260
-0.127475 0.156748 -0.143761
0.068988 0.172543 0.166908
0.381252 0.270087 0.079625
0.128785 -0.016785 -0.003991
-0.023411 0.161034 -0.053511
0.567606 -1.044237 -0.029893
-0.210942 -0.353667 -0.203263
-0.014940 0.363490 -0.043193
-0.301816 -0.561730 -0.047459
-0.774517 0.193789 0.034965
-0.507410 -1.112971 -0.045507
0.181942 -0.336133 0.035542
0.369554 -0.740513 0.038196
0.504217 -1.129014 -0.107388
0.077611 -0.340796 -0.150110
0.039850 0.163246 -0.118607
0.087985 -0.432900 0.060468
0.223477 -0.566932 0.025172
0.003033 -0.357354 0.122476
-0.530985 0.259691 0.024859
0.324633 -0.665797 0.020118
-0.147905 -0.095010 -0.122783
-0.209983 -0.264961 0.088748
0.347467 -0.635499 0.104862
-0.214655 -0.359246 -0.130215
-0.062156 0.058138 -0.143586
-0.504270 0.184114 -0.080832
0.072730 -0.385955 0.155367
-0.540713 0.269019 -0.095031
-0.424531 -1.137647 0.189147
-0.023209 -0.125004 0.138118
-0.336108 -0.821437 0.005246
-0.023047 -0.236760 0.054304
-0.496989 -1.049593 0.054376
-0.010739 0.048549 -0.032531
-0.536713 -1.000468 0.038808
-0.660800 0.201326 0.030575
-0.617755 0.142029 -0.016080
-0.198487 -0.489109 0.146990
0.259933 0.239304 0.058091
0.366971 0.142341 0.061795
-0.205263 -0.650615 0.129984
-0.018630 -0.181104 -0.163507
0.450619 -1.012243 -0.073884
0.097658 -0.156861 -0.118911
0.355358 0.161630 0.061153
-0.462799 -0.799563 -0.144354
-0.232031 0.231711 -0.145431
-0.217647 -0.533607 -0.045297
-0.263209 0.091758 -0.076492
-0.089782 0.316479 -0.009174
0.488867 -0.996110 0.179757
-0.563712 0.204977 -0.002022
0.120992 0.530473 0.003138
0.427299 0.128088 -0.009815
0.429916 0.258616 -0.093991
-0.195046 -0.614772 0.156567
0.011788 0.076606 -0.009387
0.393865 -0.962766 -0.100258
0.226665 0.090237 0.011442
-0.080536 0.069300 0.182800
0.505435 -1.131053 0.158677
0.162600 0.255916 0.000471
0.350472 -0.795601 -0.045860
0.138019 -0.237841 -0.055725
-0.536584 -1.070000 -0.120146
-0.271157 -0.266599 -0.042903
-0.852886 0.150931 -0.135029
-0.533520 -1.049445 -0.010336
0.087025 -0.334629 -0.156189
0.434183 0.167200 -0.025496
-0.130591 -0.233289 -0.191341
0.182544 -0.181789 -0.168014
0.081965 -0.514883 0.021517
0.158103 0.017383 -0.062575
-0.388626 -1.016298 0.000139
-0.158145 0.036172 0.027125
-0.280776 -0.798053 0.063911
0.094864 -0.229397 -0.217151
0.033445 0.456872 -0.035574
-0.160240 0.157411 -0.146198
0.077271 -0.027301 -0.182682
-0.154450 0.122572 -0.067198
-0.059172 -0.347892 -0.153321
0.291881 -0.861662 0.022669
-0.104874 -0.211866 -0.002455
-0.016293 -0.350411 0.209475
-0.015945 0.101559 -0.060982
0.011221 -0.108694 -0.127201
-0.208672 -0.156173 0.084233
-0.073338 -0.099387 0.172991
0.499220 -0.924203 0.035177
-0.058805 0.397222 0.037351
-0.234629 -0.583746 -0.059962
-0.271297 0.121902 0.079899
-0.481585 0.139586 0.026675
0.219421 -0.174488 -0.022059
0.454693 -1.049460 0.100557
0.118718 0.227992 -0.001693
-0.388391 -0.891823 -0.141667
0.087186 -0.231501 0.152792
0.139174 -0.525315 0.144780
0.028109 -0.040252 0.062365
0.143075 0.227076 -0.035751
0.135163 0.240383 -0.045306
-0.206618 -0.512266 -0.109645
-0.520651 -1.039010 0.163563
-0.059061 0.038175 0.054957
-0.240834 -0.116240 0.022721
0.329683 -0.567475 0.145965
-0.126701 -0.467739 -0.083138
-0.728513 0.276918 -0.038969
0.456783 -0.805742 -0.031688
0.091783 0.200859 -0.008358
0.723977 0.148667 -0.009266
0.397077 0.278012 -0.020175
0.320437 -0.822941 -0.110306
-0.162476 0.209982 -0.073548
-0.412337 0.302756 -0.080278
0.157592 -0.479037 0.000073
0.830945 0.297198 -0.055320
-0.319109 -0.915386 -0.062364
-0.315097 -0.522491 0.012926
-0.019313 0.569070 -0.106520
0.204488 -0.464461 0.146091
-0.131426 0.047015 -0.183285
0.286911 0.135715 0.052159
0.334665 -0.965663 -0.013300
-0.098609 -0.190189 -0.003884
-0.642322 -1.093774 0.072623
0.227896 -0.628988 -0.014225
-0.049057 -0.103163 0.075961
0.393406 -0.693551 -0.091180
0.072080 0.236857 0.035118
0.315725 -0.688686 -0.104269
0.297098 -0.386147 -0.072949
-0.546544 0.143777 -0.034334
0.012049 -0.007826 0.038703
-0.591285 -1.118069 -0.098251
0.038162 -0.067671 -0.114282
0.010495 0.054451 0.010546
0.065911 0.278994 0.023700
-0.156367 -0.391256 -0.086669
0.262697 -0.536506 -0.142160
0.073338 0.179712 0.092084
0.034556 -0.067396 -0.159860
0.098911 -0.575002 -0.035097
-0.110775 0.036761 -0.049140
-0.663749 0.281238 0.032106
0.118229 0.410669 -0.040669
0.102318 -0.015776 -0.102625
0.391369 -0.706807 -0.015368
0.049147 0.096509 0.052066
0.005735 -0.422804 -0.103145
-0.233354 -0.567951 -0.080572
-0.219552 -0.018568 0.022949
0.539956 -0.949806 -0.104911
-0.035071 -0.286433 0.241264
-0.488437 0.166554 0.008076
0.208005 -0.475971 0.141852
-0.016484 -0.147705 -0.020447
-0.040843 -0.286182 -0.164016
-0.125248 0.113391 0.021368
-0.021769 -0.208134 -0.263820
0.223486 -0.447471 0.128919
-0.868478 0.142264 0.047064
0.868254 0.162905 0.066962
0.014519 -0.397886 0.141994
-0.457023 -0.977398 -0.047331
0.204824 -0.635091 0.083196
-0.037989 -0.154763 0.066561
-0.102561 -0.199337 -0.010369
0.046730 -0.180787 0.082891
-0.123603 -0.096397 -0.126174
-0.132025 -0.362718 0.087448
-0.344021 0.285675 -0.062215
0.062461 -0.283053 -0.043133
-0.505997 -0.858543 -0.033539
0.003535 -0.343228 -0.171954
0.095750 -0.411549 0.061659
0.258790 0.184090 -0.021744
-0.376939 -0.823195 -0.090676
0.079080 -0.520056 -0.160501
0.155930 -0.316264 -0.057745
-0.168396 -0.162758 -0.165742
-0.324362 -0.679228 0.017404
-0.201669 -0.133632 0.000453
-0.309836 -0.749033 -0.071490
-0.397074 -0.964588 -0.052124
-0.227208 -0.414190 0.042048
0.005564 0.018151 0.058949
-0.225365 0.115643 -0.132692
-0.410743 -1.061880 0.118759
-0.269363 -0.734645 -0.153977
0.494069 -1.107790 0.102396
-0.027368 0.402422 0.141966
0.326656 -0.732846 0.067786
0.379990 -0.803541 -0.080898
0.280427 -0.423236 0.097693
-0.193738 -0.815437 0.003160
0.270649 -0.780205 -0.012436
0.403733 0.218520 -0.004779
0.073372 -0.211405 0.112976
0.599246 0.202135 0.077237
0.035342 -0.102438 -0.042889
0.155921 -0.252497 -0.033189
-0.011494 0.012410 0.037619
0.089072 0.045759 0.048208
-0.508539 0.165437 -0.122304
-0.099369 -0.027661 0.126939
-0.229306 -0.214949 -0.107724
0.277601 -0.430208 0.074833
-0.462755 0.173872 0.032428
-0.086456 -0.224923 -0.025676
0.091137 -0.224060 -0.049578
0.412728 -1.091524 -0.081558
0.040175 -0.355099 -0.117142
-0.058357 0.145471 0.038779
0.183475 0.214639 0.094859
0.149014 -0.406775 0.173945
0.353831 0.295499 -0.071710
-0.112033 -0.225939 -0.018460
0.145743 -0.477053 -0.125741
0.068290 0.264995 0.007692
0.472882 -0.965500 -0.085337
-0.310706 -0.844048 -0.080032
-0.456068 -0.931446 0.034040
0.208064 -0.180929 0.161783
0.046666 -0.497497 -0.093407
0.471330 0.310638 0.010809
-0.379320 -0.752352 -0.134253
0.093925 -0.182711 -0.073127
0.080244 -0.396774 0.054561
-0.168634 0.143477 0.055370
-0.087482 0.545320 -0.013167
0.170950 0.150499 0.010424
0.718965 0.298013 0.012948
0.058615 0.152692 -0.063088
-0.830331 0.199526 -0.067439
0.155954 -0.588106 -0.059020
-0.019457 -0.198178 -0.149150
-0.106241 0.431319 -0.065804
0.256857 -0.410321 0.024555
0.346423 -0.836458 -0.122980
0.225432 -0.275077 0.042529
-0.535230 0.136640 -0.080769
-0.443179 -1.120777 0.166528
0.015846 -0.076535 0.104538
0.203415 -0.260121 -0.011721
0.264493 -0.694563 0.117221
0.027673 -0.315712 -0.042325
0.450976 -0.938549 0.040628
0.295185 -0.648978 -0.085088
0.027966 -0.169417 0.071482
-0.056866 -0.419939 -0.123032
0.030208 -0.218136 0.002665
-0.272520 0.196538 -0.056900
0.338803 -0.909775 -0.108901
0.187002 0.139472 0.048717
0.336548 -0.707418 -0.033579
0.391283 -0.775581 -0.105753
-0.053234 -0.159784 -0.234653
0.233232 -0.622546 -0.022305
-0.201964 -0.622894 -0.136766
0.165759 0.141609 0.015752
0.541509 -1.127677 0.112994
0.227827 -0.296442 0.017943
-0.002852 0.370001 -0.015879
0.134681 -0.017442 0.107898
-0.857715 0.230662 -0.056019
0.083214 0.500972 -0.136098
0.033907 0.381133 -0.093336
-0.209302 0.023431 -0.106113
-0.259781 0.244027 0.026583
0.498402 0.263195 -0.042329
-0.142195 -0.104275 -0.127320
-0.050383 0.151359 0.001474
0.017508 -0.305739 -0.019174
0.202438 -0.152386 -0.011617
-0.185363 -0.109526 0.077238
-0.032085 0.311483 0.039989
-0.019975 -0.211063 0.097275
0.200658 -0.077426 0.044540
-0.092131 0.412376 -0.022474
-0.114538 -0.174974 0.158093
-0.438204 -0.857932 -0.030148
-0.092039 0.296535 -0.119990
0.332984 -0.777012 -0.086205
-0.228089 -0.329146 0.133586
-0.000345 -0.212995 0.073487
0.020486 -0.300954 -0.071552
0.072839 -0.050290 0.063340
0.335061 -0.672648 0.064540
0.893387 0.254422 -0.161464
-0.714980 0.198027 -0.047362
0.606278 -1.120081 0.081337
0.124123 0.158459 0.117933
0.490241 -1.136242 0.181402
0.051126 0.157092 -0.077799
0.488542 -0.943416 0.053297
0.177020 -0.376666 0.013008
0.170029 -0.347110 -0.097232
0.052825 -0.221262 0.237656
0.126018 -0.454822 -0.071571
0.374766 0.167037 -0.127600
0.470123 0.255618 -0.115133
-0.344771 -0.886411 0.094071
0.349406 -0.818505 -0.037109
0.038554 -0.346130 -0.030667
-0.109372 0.444784 -0.104219
-0.212066 -0.520503 -0.027931
-0.036378 -0.099574 0.149290
-0.116891 -0.441364 -0.082361
-0.165789 -0.451494 -0.083437
0.176059 -0.708068 -0.059213
-0.164315 -0.213855 -0.129115
-0.045478 -0.221651 -0.114675
-0.017754 -0.418766 -0.082813
-0.416986 -1.049058 0.130164
0.509308 -0.957368 -0.056230
0.047730 0.563520 0.029198
0.024747 0.059901 -0.066476
-0.057764 -0.550431 0.062848
0.124461 0.071349 0.008788
0.557549 -1.147767 -0.019892
-0.251469 -0.436007 0.041221
0.027108 -0.154521 0.154376
0.196629 -0.519971 0.032197
-0.203163 -0.042915 0.159595
-0.471729 0.174927 0.002837
-0.008842 -0.047254 -0.090227
-0.148502 -0.564640 -0.144128
0.052983 -0.357678 0.019685
-0.430227 -1.131524 0.037042
-0.142394 0.273894 -0.051980
0.167412 0.215539 0.007087
0.063073 -0.098860 0.235649
0.340774 -0.766532 0.097806
0.105414 0.049562 0.037922
-0.133697 -0.456642 -0.088287
0.134520 0.011002 0.146602
-0.159162 -0.023184 0.140013
0.245656 0.139219 0.089635
-0.014984 -0.273162 -0.060603
0.728293 0.275207 0.049025
0.292404 -0.421279 -0.074706
-0.102765 -0.267213 0.192535
-0.231864 -0.374627 0.000023
0.017790 0.468603 -0.038564
-0.088866 0.156255 -0.126663
-0.058202 0.025606 -0.113206
-0.107828 -0.114071 -0.111800
0.073494 -0.312816 0.076965
0.597123 0.229134 -0.113378
0.133778 0.013701 -0.054545
-0.054803 0.015488 0.170289
0.036978 -0.087373 -0.170885
0.106445 -0.151330 0.059439
0.550076 -1.158235 0.094906
-0.683902 0.141606 0.029832
0.212340 -0.483165 0.021972
0.133316 -0.236392 -0.019516
-0.594466 -1.041250 0.150962
-0.119265 0.203295 0.036610
0.160054 0.288806 -0.131106
0.096926 -0.243746 -0.194141
0.052494 0.487271 -0.018649
-0.575900 0.218263 -0.081811
-0.558408 -1.124316 0.226411
-0.397289 -0.582694 0.014041
-0.053965 0.250202 -0.171269
-0.020494 0.153141 -0.124368
-0.012140 -0.245984 0.093408
-0.041873 -0.025003 -0.220066
0.248514 0.060010 -0.073104
-0.497444 -0.913431 -0.027852
0.140775 -0.561364 0.191050
0.113083 -0.225845 -0.054440
-0.372412 -0.901326 -0.145407
-0.335301 -0.503149 -0.028706
-0.005007 0.161663 0.013638
0.824205 0.260949 -0.108922
0.062920 -0.505143 0.017334
0.391024 0.296688 0.001223
0.436354 -1.017550 -0.022681
-0.024068 0.023339 0.016154
0.285628 -0.465415 -0.002445
0.476730 -0.880647 -0.013792
0.050330 -0.450144 0.081597
-0.062033 -0.323309 0.212910
0.094489 -0.216127 -0.040764
-0.066284 0.201631 0.148215
-0.061535 0.454571 -0.085992
0.247166 -0.563916 -0.007819
-0.186122 -0.233058 0.173539
-0.059040 -0.285345 0.166711
-0.051068 -0.228255 -0.034885
-0.083198 0.062275 0.010774
0.457989 -1.162837 0.169771
-0.135315 0.272553 -0.137596
-0.034454 0.060154 0.219824
0.240264 -0.378319 -0.092656
0.008874 -0.044314 0.072471
0.397820 0.235229 0.009149
-0.081374 -0.138098 0.096060
-0.125801 -0.322552 -0.007365
0.156677 0.255716 -0.164902
0.051876 0.203972 -0.114509
-0.053780 0.080632 -0.009586
0.592358 0.139664 -0.061311
0.429587 0.204857 -0.104292
0.080158 0.083216 0.025918
-0.485555 0.220178 -0.037445
0.071449 0.402863 0.128382
0.025043 -0.149059 -0.084937
-0.092780 -0.263818 0.138164
0.126281 -0.164174 0.001385
-0.114611 -0.153481 -0.218148
-0.232049 -0.736165 -0.021187
0.262600 -0.409354 -0.053220
-0.248651 -0.619414 0.118238
-0.146402 -0.197519 -0.013901
0.520518 0.279355 -0.030924
-0.094560 0.025948 0.214252
-0.370153 -0.823639 -0.062559
0.478066 -1.023808 -0.013918
0.011785 -0.429898 0.208170
0.144367 0.058324 0.117253
0.071546 -0.222912 -0.123142
-0.428948 -0.970791 -0.051792
0.177861 -0.316732 0.174959
-0.015041 -0.223336 0.106814
0.191264 -0.165254 0.013131
-0.430566 -1.066434 -0.005849
-0.071277 -0.138603 -0.128731
0.147928 -0.326125 -0.107258
-0.119060 -0.022217 0.069962
-0.108513 0.126910 0.168374
0.065688 -0.004210 -0.010758
-0.207257 0.186983 0.074871
-0.020342 -0.065280 0.201854
0.024028 -0.344435 -0.164081
-0.024879 -0.147119 -0.198066
-0.304708 -0.890500 -0.021429
0.467685 -0.721630 -0.031654
-0.095502 -0.355770 0.093101
-0.020383 -0.012433 0.154269
0.569263 -1.024833 -0.131616
0.098526 -0.296046 -0.237066
-0.137294 -0.585619 0.164448
0.111666 -0.512123 0.091578
0.056571 0.473143 0.188597
-0.307280 0.154225 -0.063864
-0.045124 -0.194311 0.117407
-0.021625 -0.242729 -0.097774
0.462054 0.298405 0.008519
0.231857 -0.601272 0.064315
0.053026 -0.343239 0.025812
0.027401 -0.284870 0.113876
0.290774 -0.705944 -0.062199
-0.293021 -0.843498 -0.074734
0.092192 -0.454948 -0.104351
0.028262 -0.064900 0.010902
-0.051706 -0.519165 0.112083
0.360996 -0.676771 0.080465
-0.511771 -0.996012 0.115228
-0.040608 -0.087826 -0.068646
-0.453468 -0.855361 -0.040096
-0.030707 -0.383760 -0.145725
0.331161 0.301528 -0.041942
0.111443 0.012622 0.042744
-0.041291 -0.208478 0.074288
0.269807 0.129142 0.014247
-0.260709 -0.609963 -0.092913
-0.589654 -1.061780 0.152279
-0.436723 0.230950 -0.013270
0.110255 0.027299 -0.103557
0.035599 -0.183878 0.047585
-0.403865 0.290740 -0.007821
-0.124593 -0.191099 0.046298
-0.435691 -1.069969 0.005450
0.108435 -0.355008 -0.050699
0.710776 0.287951 0.018425
0.278498 -0.338414 0.010974
-0.105856 -0.302676 -0.265284
-0.021919 0.581201 0.122550
-0.045847 -0.083023 0.089364
-0.749251 0.308964 0.004462
0.483946 -1.067733 0.149448
0.442659 -1.091436 0.147923
0.129734 -0.077024 -0.009068
-0.057908 -0.402254 0.174224
0.566223 -1.012779 0.208913
-0.087894 -0.500856 0.165839
0.182983 0.020030 0.122797
0.232566 -0.507645 -0.089831
-0.118114 -0.342091 -0.174809
0.438491 0.311982 0.027493
0.147021 0.260353 -0.065552
-0.432789 -0.743726 -0.153351
0.698444 0.257472 -0.099873
-0.699661 0.257581 -0.045110
0.038880 0.398753 0.112485
0.096267 -0.016365 -0.006784
-0.012158 -0.111361 0.194126
0.103669 0.012986 0.006642
0.272646 -0.470222 -0.045067
-0.058217 0.464171 -0.045238
-0.003793 0.526136 -0.146707
-0.055195 -0.404452 -0.059884
0.010804 0.058518 0.042985
-0.173224 -0.249178 -0.133772
0.178306 -0.313948 -0.153558
-0.261053 0.297370 -0.043791
0.156386 0.208373 0.010788
0.194238 0.118132 0.121717
0.239862 -0.188695 -0.034363
0.055157 -0.383005 0.090712
-0.017165 -0.219406 0.062184
-0.049972 -0.382905 -0.059601
0.638998 0.248640 -0.026306
0.186000 -0.387401 0.141544
0.007421 -0.176030 -0.160303
0.129198 -0.356494 -0.033368
0.299035 -0.767759 -0.001942
-0.683184 0.206147 -0.047278
-0.034375 -0.305912 0.031627
0.045256 0.216386 -0.005639
-0.042636 -0.164016 -0.007039
-0.024622 -0.013846 -0.157702
0.151494 -0.528594 0.128570
0.458546 0.104205 -0.010908
0.475775 -1.137526 -0.048568
0.482909 -0.992092 -0.055746
0.198178 -0.518315 -0.158868
0.065728 -0.487183 -0.091695
0.511336 0.164964 -0.015879
-0.418841 -0.916950 -0.035158
-0.308700 0.211873 -0.028108
-0.208607 -0.121933 -0.078825
-0.370670 0.300791 -0.026893
-0.355391 -0.831633 -0.093671
0.549491 0.268943 -0.000711
0.062498 -0.033142 0.204040
0.358163 0.290287 -0.000138
-0.605214 -1.096544 0.016079
0.146655 -0.073614 0.049548
-0.444877 0.213656 0.042914
0.012546 -0.413703 0.033531
0.256361 -0.539121 -0.102028
-0.079746 0.260948 -0.086980
-0.449799 -1.129182 0.045150
0.113887 -0.544512 0.120325
0.488714 0.338517 -0.000370
0.353147 -0.526231 0.016903
0.268796 -0.627924 -0.109565
-0.074108 0.323566 -0.004143
0.303220 0.165059 -0.078743
0.149742 -0.459421 -0.011430
-0.202500 -0.376291 -0.091838
0.113987 -0.288763 -0.167068
-0.047085 0.555990 0.021560
0.011735 -0.381905 -0.019720
0.600957 0.282450 -0.102594
-0.096480 0.052441 -0.007952
0.113287 -0.147196 0.230004
-0.555862 0.255948 -0.012079
0.431188 -0.635624 -0.033461
-0.821183 0.260269 -0.092959
-0.029685 -0.262830 -0.000613
-0.388494 -0.981889 -0.145724
0.078999 -0.067947 0.032878
-0.173030 -0.396772 -0.016863
-0.591833 0.120692 -0.021692
0.109770 0.358359 0.102387
0.037493 -0.336492 -0.022395
0.100803 0.084152 -0.074428
-0.211192 -0.188197 -0.025808
0.038175 -0.009255 0.036240
0.413605 0.133528 -0.060680
0.213981 -0.491091 -0.145907
0.291103 0.129477 0.028554
0.209020 -0.165312 0.113087
-0.192643 -0.055064 0.139888
0.045506 0.334245 -0.028572
0.119484 -0.117873 0.117716
0.023466 0.082244 0.016302
-0.180674 -0.539403 -0.025599
-0.254089 -0.608927 0.117603
0.129465 -0.039954 0.041475
0.195634 -0.574704 0.067172
-0.778062 0.183888 0.084307
0.220313 0.275693 0.019700
0.080996 -0.256931 0.033761
0.168781 -0.357324 -0.037949
0.964163 0.196746 -0.029187
0.324804 -0.827807 -0.037559
-0.423465 0.302406 -0.105422
-0.062668 -0.559914 0.090725
-0.001246 -0.263401 0.041519
-0.863655 0.271258 -0.066637
-0.442915 -1.011167 0.057300
-0.059379 0.018771 -0.126165
-0.372642 -0.749156 -0.104982
-0.235967 -0.123952 -0.066782
0.326587 -0.626808 0.052420
0.885882 0.247335 0.033643
-0.898654 0.245614 -0.033715
0.357324 -0.641675 -0.018136
-0.715587 0.219517 -0.100965
0.092860 -0.310095 -0.104534
0.211290 -0.368886 -0.049098
0.031765 -0.344315 -0.140407
-0.471700 -0.905697 -0.096620
0.198507 0.299533 -0.016987
0.032382 -0.372816 0.034193
-0.748196 0.177617 0.091681
0.714085 0.308676 0.017081
-0.002771 0.501501 0.119725
-0.065339 0.068531 0.094214
0.132928 -0.582660 0.012067
-0.614844 -1.056552 0.000378
-0.513437 -1.069758 0.251591
0.549998 -1.004590 0.073615
0.039082 -0.367627 -0.104084
-0.238859 -0.814040 -0.028829
0.229202 0.145346 -0.023150
0.000297 0.189823 -0.069878
-0.110086 -0.482275 -0.023019
-0.373868 -0.898481 -0.157082
0.217712 -0.269695 -0.014697
0.587386 -0.979214 0.042382
0.158919 -0.398505 0.008372
0.089948 0.301732 -0.024786
0.708616 0.255451 -0.023880
-0.300823 0.177910 0.050455
0.038397 0.282548 0.069368
0.254050 -0.733898 0.128390
-0.855406 0.271920 -0.122589
0.280649 -0.548912 0.149176
0.676025 0.209367 0.007091
0.111571 -0.384759 -0.145145
0.241252 -0.602199 0.102883
-0.020378 -0.217496 -0.093709
-0.421898 -0.856291 -0.060007
0.084088 -0.229108 -0.056970
-0.215672 -0.520157 0.108598
0.552730 0.139612 0.001869
0.067879 -0.220144 0.128286
0.015847 -0.003499 -0.131102
-0.177864 -0.441112 0.161651
-0.437644 0.190705 -0.093349
0.221332 -0.559214 -0.008910
0.086554 0.096431 -0.111651
0.425472 -1.099527 -0.003216
0.362357 -0.570855 0.099691
0.248494 -0.413465 -0.067075
-0.287223 -0.482521 -0.087592
0.299057 -0.461902 -0.057582
0.409982 -0.607118 0.049189
-0.002523 0.240388 -0.108713
0.020295 0.104494 -0.159162
0.195940 -0.496374 -0.011393
-0.330885 -0.466762 0.011660
-0.048075 -0.091372 0.075576
0.642618 0.181552 0.045113
-0.113291 -0.084810 0.106905
0.468979 0.179636 0.006267
-0.345329 0.152755 -0.080312
-0.218731 0.173058 0.040797
-0.029912 -0.449163 -0.145587
-0.173902 -0.640862 -0.067433
-0.155309 0.217095 -0.078573
-0.000916 -0.245319 0.041582
0.444945 -0.716395 -0.001974
0.173078 0.338595 -0.070610
0.152430 -0.380778 -0.010749
-0.381345 0.224731 -0.027202
0.125226 -0.357073 0.052981
-0.651537 0.285265 0.044039
0.161610 -0.262348 -0.054549
0.141654 0.494634 0.066918
-0.267697 -0.689516 0.158522
0.492709 0.321609 -0.083607
-0.056042 0.313283 -0.083880
0.092994 -0.423803 0.020137
-0.251807 0.317919 0.052855
-0.349658 -0.449480 0.039765
-0.037369 -0.075910 0.064224
-0.099587 -0.269052 0.129901
0.146431 -0.219534 -0.052937
0.346323 -0.737713 -0.006943
-0.052895 -0.402456 -0.039908
-0.272191 -0.839254 0.006316
-0.299269 -0.751264 -0.058059
-0.044835 0.209472 0.080016
0.394603 -0.643879 0.022933
0.296973 0.207311 -0.006199
-0.039147 -0.201114 -0.236346
0.032868 -0.023588 -0.225463
-0.091257 -0.127830 0.147341
-0.115591 0.150709 0.049510
0.051566 -0.290908 -0.167486
-0.236190 -0.567866 0.056545
-0.023534 -0.101967 0.078091
-0.180197 -0.108487 -0.108976
-0.272362 -0.260231 -0.022000
-0.436755 -0.674312 0.032015
-0.166823 -0.259287 -0.194533
-0.115067 -0.315327 0.188881
-0.854807 0.251550 -0.004651
0.102868 -0.658092 0.010068
-0.095206 0.182149 0.099982
0.345113 0.243066 0.085361
0.074460 -0.216351 -0.007047
0.125121 0.387828 0.042323
0.373254 -0.837761 -0.023269
0.212607 -0.598862 -0.070830
-0.312898 -0.731798 0.084912
-0.211450 -0.653364 0.050764
0.056454 -0.249801 -0.244904
-0.004234 0.484890 0.086921
0.137848 0.076790 -0.070738
0.114180 -0.238379 -0.159749
0.156677 -0.144181 -0.182491
0.056223 0.047469 -0.079513
-0.380578 -0.533835 0.001230
-0.762278 0.255795 0.034780
-0.425304 -0.664005 -0.064912
-0.319005 0.223901 -0.067673
0.340626 -0.617167 -0.081175
-0.080402 -0.394958 0.013277
0.076610 0.198976 -0.073077
0.094549 -0.237998 -0.017514
0.185923 -0.039740 0.113939
-0.297482 -0.860401 0.059701
-0.311865 -0.655859 -0.123818
0.568814 0.188519 -0.008563
-0.186420 -0.036923 0.039342
-0.124651 -0.589483 -0.014112
0.140429 -0.122695 -0.123169
0.314672 0.258070 -0.135928
-0.613395 -1.068050 -0.073257
0.216231 -0.041827 0.081000
-0.016776 0.481674 0.082679
-0.177932 -0.526850 -0.018878
-0.214847 -0.031059 -0.074641
-0.312039 -0.578663 -0.060327
0.103391 0.021001 0.072998
-0.067617 -0.061912 -0.001156
-0.142900 0.237073 -0.063109
0.052100 0.373860 0.012729
-0.210049 -0.608374 0.079197
0.074922 0.016517 -0.169408
-0.123806 -0.040363 0.056539
0.467003 -0.779942 -0.103191
0.444864 -1.042072 -0.000510
0.086917 -0.010502 -0.003803
0.679048 0.185600 -0.057027
-0.060906 -0.378119 0.031935
-0.115353 -0.109786 0.125698
-0.124723 -0.118765 0.138338
-0.044218 0.347314 0.178036
0.557767 -1.015429 0.198452
-0.069977 0.248479 0.145127
0.059399 0.522137 -0.074681
-0.360252 -0.793352 0.036515
0.204545 -0.450140 0.155671
0.507948 -0.916933 0.057137
-0.148880 -0.620677 0.034328
-0.011096 0.007692 0.078697
0.310441 -0.869976 -0.019443
0.017600 0.097721 -0.189544
0.084230 0.059782 -0.164648
-0.018613 -0.187499 -0.147590
0.064787 -0.379284 -0.091100
-0.205288 0.123178 -0.090659
-0.488629 -0.815944 0.056386
-0.421863 -0.616795 -0.002723
-0.264002 -0.243021 0.024318
0.008745 0.267464 -0.067478
-0.039126 0.024695 -0.127709
-0.889056 0.214739 -0.020323
-0.127849 -0.575960 -0.074604
-0.052541 -0.161125 -0.022879
-0.103974 -0.056607 -0.181114
0.177868 0.161663 0.076542
-0.435097 -1.055817 0.151231
-0.043229 0.120332 -0.017376
-0.010052 -0.234010 -0.057316
0.039057 -0.088090 -0.012154
0.144597 0.108923 -0.014558
-0.271564 -0.543421 -0.042186
-0.016489 -0.520102 -0.075691
0.095352 -0.066173 0.227593
0.338569 0.245687 0.037936
0.094032 0.427361 -0.055135
-0.268592 -0.494388 0.182658
-0.407016 0.323381 -0.081974
-0.321257 0.153540 0.005668
0.866768 0.252250 -0.064615
-0.636885 -1.080314 0.142387
0.169318 -0.283401 -0.000708
0.202602 -0.428029 0.121563
-0.185763 0.006002 0.032270
-0.687549 0.218837 -0.134086
0.116518 0.162282 0.128129
0.135064 0.185231 -0.035741
0.229735 -0.285495 -0.101638
0.317026 -0.859431 0.036291
0.041240 -0.320522 0.038278
0.191439 -0.059987 -0.041763
-0.282138 -0.361673 -0.015736
-0.168502 0.099262 0.090502
-0.500883 -1.019676 -0.120537
0.017748 0.503382 -0.085327
0.039904 0.573398 -0.102795
-0.041486 0.017144 0.158184
-0.056721 -0.249321 0.065530
0.019056 0.307473 0.129935
0.113226 -0.542398 0.175802
0.593742 0.231203 -0.053005
-0.183966 -0.661751 -0.071175
0.343906 -0.828693 -0.055479
0.019730 0.424516 -0.106576
0.107007 0.337751 -0.071359
-0.105959 -0.395560 0.069498
0.229031 -0.351342 0.072847
0.193603 0.006070 -0.045717
0.289806 -0.785854 -0.010924
0.085438 -0.097567 -0.059789
0.147145 -0.190080 0.177082
0.110052 -0.098867 0.089911
-0.541377 -1.033273 -0.089945
0.617929 0.203728 0.095254
0.030725 -0.135009 -0.089199
-0.592645 0.167583 -0.062119
-0.189482 -0.348674 -0.080467
-0.155279 -0.351320 -0.172549
-0.175680 -0.463118 0.069160
-0.056225 0.227084 -0.126388
-0.158456 -0.706451 0.085320
-0.221052 0.026883 0.022429
0.158621 -0.466473 -0.199123
0.070863 -0.224229 -0.234478
-0.214050 0.120733 -0.081896
0.150976 -0.370899 -0.208622
0.628817 0.265923 0.012159
0.316293 -0.596545 0.047347
-0.000546 0.054202 0.154382
0.155712 -0.377445 -0.077784
0.119990 -0.324177 0.176827
0.391149 -0.647947 0.013481
-0.049297 -0.444024 0.038501
-0.064978 -0.170912 0.178889
-0.068856 -0.440595 -0.167090
-0.444112 -0.736923 -0.141665
0.200182 -0.112841 0.017621
0.012070 0.200037 -0.075716
-0.223547 -0.280948 0.095508
-0.773908 0.204209 -0.132046
0.290021 -0.521365 0.153978
-0.367050 -0.724439 0.021747
0.015006 -0.091112 0.019201
0.100072 0.113327 -0.034464
-0.074410 -0.022475 0.129748
0.223272 -0.485586 -0.113127
-0.388409 -1.072768 -0.069934
-0.110687 -0.444027 -0.028822
-0.018145 0.055941 -0.035640
-0.149954 0.227119 0.107331
-0.501747 -0.800478 0.045727
0.276474 -0.408400 0.145076
0.019606 0.575657 0.068552
-0.263503 -0.709757 0.126979
0.452045 -1.136287 -0.050346
0.491384 -1.081571 0.192074
0.150552 0.209470 -0.083909
0.451052 -0.821984 0.007959
0.227242 0.228066 0.088063
0.382773 -0.802877 -0.100925
-0.212131 0.211062 0.017886
-0.132978 -0.450538 -0.116883
-0.097776 -0.416925 0.196674
-0.022917 0.559031 0.025662
-0.001947 0.092625 0.016027
0.056695 0.110719 0.009917
-0.033090 0.392789 0.134654
-0.178618 -0.418007 -0.101662
-0.250109 0.320003 -0.014337
-0.251758 -0.695534 0.155387
0.129923 0.412008 -0.054449
-0.160163 -0.003027 -0.032712
0.220120 -0.372993 -0.016242
0.213510 0.259935 -0.089697
-0.149316 0.190203 0.158435
-0.214945 0.200425 0.011273
-0.111365 -0.239090 0.056451
-0.039446 -0.370940 0.013505
-0.251623 0.217697 0.097127
0.022919 -0.200704 -0.075052
0.432492 -1.006374 -0.089822
0.122272 -0.076743 0.096574
-0.296521 0.315127 0.004553
-0.768280 0.208930 -0.116143
-0.004597 -0.342548 0.071365
0.153381 -0.498168 0.025357
0.036131 -0.039114 -0.041406
-0.103020 -0.232341 0.092574
-0.019627 -0.474549 -0.018814
-0.045920 0.486849 -0.034758
-0.335160 -1.000867 -0.001565
-0.537903 0.249989 -0.016367
-0.243445 0.140163 0.007643
0.106857 0.091711 -0.031235
0.196178 -0.301118 0.197079
0.003890 -0.336992 -0.117004
0.548483 -0.974727 -0.002820
-0.154775 -0.454675 0.068261
0.101944 0.513504 -0.003943
-0.284305 -0.329403 0.003932
0.341682 -0.555190 -0.076287
0.221902 -0.363850 -0.099349
-0.506574 -0.879038 0.015037
0.177488 -0.448293 0.046174
-0.063266 -0.253386 0.159758
0.040019 0.067253 0.103738
-0.139357 -0.625186 0.081928
-0.020436 0.196948 -0.108115
0.014706 -0.174592 -0.059467
-0.073253 -0.137278 -0.216763
0.253148 -0.503357 -0.060942
-0.191038 -0.157723 0.151754
0.096476 -0.052356 -0.107243
-0.083378 -0.488586 0.051002
0.049398 -0.336640 -0.000033
0.107604 -0.087052 -0.078127
0.159549 -0.323515 0.142189
-0.431454 -1.033570 -0.030304
0.275513 -0.856883 0.047340
0.159661 0.169711 0.014927
0.116924 0.081442 0.163234
0.247327 -0.064131 0.051540
-0.215763 0.241320 -0.029187
0.050708 -0.454932 -0.090336
0.059161 -0.106960 -0.106837
-0.004601 -0.193280 -0.049737
0.170047 -0.119913 0.153949
0.092660 -0.411566 0.021461
0.252289 -0.307418 -0.001707
-0.231644 0.186172 0.048253
0.208681 -0.170251 -0.024098
-0.346478 0.123526 -0.121394
-0.383798 -0.748756 0.037230
0.251350 0.209751 -0.072698
-0.247575 -0.554302 -0.007125
0.168747 -0.356928 0.204385
-0.002445 0.137646 0.076013
0.060182 -0.391453 0.099245
0.041597 -0.278735 -0.050616
-0.230820 0.268240 -0.051038
0.264858 -0.898722 -0.038377
0.337256 -0.644306 -0.071497
0.383447 -0.815465 -0.084493
0.083950 0.044706 -0.121980
-0.317223 0.232861 -0.140554
0.064537 -0.346321 -0.203368
-0.158742 0.273239 -0.036954
0.519569 -0.794531 -0.038868
-0.530330 0.257747 0.005349
0.111687 0.101012 0.020462
0.274182 -0.517341 0.039289
-0.443910 -0.770608 0.003374
0.175838 -0.258699 -0.116530
0.797898 0.182636 0.108145
0.032400 -0.503600 -0.007600
0.008844 0.517746 0.120586
-0.843797 0.283415 -0.086085
-0.394772 -0.972240 0.071276
0.178778 -0.172424 0.118847
0.526807 -1.091447 0.136423
-0.161012 0.255656 -0.119692
0.092627 -0.045801 -0.005150
-0.882918 0.234085 -0.137917
-0.479793 -1.072639 0.049930
0.717399 0.297334 -0.105221
0.103753 -0.287014 0.120939
0.162912 -0.367346 -0.207209
-0.355425 -0.667182 0.112568
-0.005957 -0.469081 -0.196427
-0.258485 -0.758454 0.025451
0.124727 -0.263003 0.063637
0.045312 -0.028044 0.002075
0.339345 0.219580 -0.006282
-0.056817 -0.057358 0.021848
-0.037771 -0.203365 0.263301
-0.409156 -0.989080 -0.053308
-0.424470 -0.804721 0.080708
0.126817 -0.326678 0.118875
0.102440 -0.383652 0.061112
0.217818 -0.401846 0.009509
0.888033 0.145887 -0.082164
0.068008 -0.099778 -0.136110
-0.118861 -0.381234 -0.099970
-0.208069 -0.709524 0.085790
0.124418 0.174497 -0.107269
-0.292945 -0.907236 0.019512
0.563962 -1.150158 0.105613
0.172918 -0.281799 -0.179069
0.149716 -0.439986 -0.103403
0.174663 -0.451182 -0.189644
-0.948289 0.252009 0.011065
0.036590 -0.160803 0.050613
0.585332 0.202237 0.075387
0.758611 0.250228 -0.023608
-0.003405 0.259401 -0.081483
0.038286 0.491078 -0.017691
0.119876 -0.343209 -0.108605
-0.159451 -0.406612 -0.092474
0.089819 0.434599 0.059474
-0.485667 -1.045787 0.088248
0.061409 -0.325317 -0.025400
-0.342272 0.317702 -0.088758
-0.092736 0.020400 -0.020697
0.019104 -0.095435 -0.118464
0.207597 0.186492 -0.120983
-0.150373 0.245131 -0.097468
-0.233129 -0.154508 -0.029579
0.542169 -0.978240 0.197916
0.282637 -0.571436 0.067970
-0.249972 0.019910 0.137109
0.680764 0.245807 -0.085866
-0.194938 -0.422941 0.154181
-0.159250 -0.179914 0.152468
-0.446978 -1.037920 -0.012892
-0.085902 -0.136654 0.143187
-0.007392 0.069674 -0.095480
-0.049795 -0.338040 0.170954
0.101207 -0.486167 -0.025296
-0.144607 0.227054 0.021161
-0.273146 -0.689203 -0.083414
0.304867 0.240092 -0.053447
-0.284679 -0.512193 -0.126964
-0.265143 -0.522473 -0.027392
-0.063020 -0.181198 -0.169373
0.024536 -0.408585 -0.109725
-0.053667 0.003934 0.048568
-0.371446 -0.896302 -0.126897
-0.044204 0.483801 0.015201
0.059434 0.216314 -0.039774
0.359660 -0.938234 0.049252
-0.471955 -1.086946 -0.132914
0.587310 -1.116400 0.047462
-0.048343 0.492452 0.113330
-0.350450 -0.808304 0.056154
0.483846 -0.814705 -0.000908
-0.391921 -0.981152 -0.126828
-0.282289 0.117587 0.061849
-0.800630 0.192169 -0.106794
0.065047 0.182608 0.044017
-0.127868 -0.198400 0.160040
0.257102 -0.596423 0.005166
0.048170 0.372194 0.071879
0.372593 -0.771127 -0.145288
0.787095 0.261910 0.024269
0.278626 -0.721554 0.064917
0.168671 -0.316806 0.181616
-0.112170 0.297990 -0.032552
0.179822 -0.213530 0.071061
0.212737 -0.341612 -0.009690
-0.344836 0.210821 0.018262
0.426076 -0.631766 -0.061083
0.692438 0.274601 -0.066241
-0.135489 -0.408756 -0.019065
-0.024219 -0.325278 0.050339
-0.861587 0.271238 0.024148
-0.195165 -0.641228 -0.013289
0.334412 -0.669689 0.140218
-0.437607 -0.833865 -0.094657
0.403899 0.234321 0.049783
-0.182520 -0.311009 0.036475
0.504063 -1.019060 -0.048461
-0.210983 0.133853 0.109859
-0.753650 0.224350 -0.142981
-0.591864 -1.115098 0.059558
0.429782 -0.980597 -0.120270
-0.206991 -0.685521 -0.054602
0.349060 -0.794576 -0.122068
0.041878 -0.354230 -0.021516
0.617234 -1.066214 0.036891
-0.856780 0.257776 -0.076641
0.026258 -0.246770 -0.112119
0.216673 -0.408209 -0.001156
0.149920 -0.652252 0.050181
-0.291359 0.258445 -0.011351
0.166703 -0.335240 -0.001064
-0.361414 -0.786232 -0.035267
-0.251260 -0.768142 -0.029600
0.196475 -0.610115 0.103799
0.052909 -0.051006 0.019454
-0.244317 -0.693009 0.076635
0.515016 -1.050212 0.194240
0.013754 0.590553 0.092321
0.167354 -0.081858 -0.122585
-0.470908 0.251078 -0.019460
0.290042 -0.377352 -0.023481
0.089597 0.006321 -0.046636
0.005671 -0.155690 -0.196670
-0.274848 0.074694 -0.079624
-0.083382 0.177120 -0.007328
0.482338 -1.150494 -0.107129
-0.539325 0.227031 -0.007910
0.036612 0.560316 0.030833
0.119963 0.199623 0.096142
0.304773 -0.727613 0.091349
-0.014141 0.597495 0.062885
0.488338 -0.746908 -0.072979
0.426861 -0.899480 -0.135939
-0.476131 0.111647 -0.028707
0.081041 -0.491353 0.100339
0.137896 -0.346260 -0.194807
0.227665 -0.215826 -0.111918
-0.390614 -0.745784 -0.112978
-0.101801 -0.249383 -0.052847
0.279720 -0.399824 -0.062807
-0.343291 -0.741510 -0.140410
0.124057 0.288295 0.065505
-0.014810 0.461638 -0.050820
-0.126401 0.188195 -0.091574
0.478536 -0.918548 -0.010490
0.216111 -0.091876 -0.087158
-0.105553 0.121754 -0.024242
0.061833 -0.050121 -0.013123
-0.542265 -1.039732 -0.155087
-0.002358 0.077943 0.061311
-0.204292 -0.433948 0.162860
-0.236977 -0.329460 0.094244
0.755333 0.306049 -0.101955
-0.616139 -1.057607 -0.074771
0.143427 -0.172752 -0.119706
0.151937 -0.201345 0.151594
-0.338550 0.319081 -0.002618
0.309829 -0.589093 -0.045357
0.325801 -0.634274 -0.111160
-0.003957 0.162456 0.116989
-0.292807 -0.705502 -0.128930
0.164174 -0.442584 0.003869
0.198710 -0.088027 -0.071059
-0.101617 -0.450203 -0.051507
0.182071 -0.741918 0.017469
-0.003078 0.039799 -0.036362
-0.594053 -1.097392 0.202483
-0.437706 0.115130 -0.086772
-0.186332 -0.308010 0.204060
0.259920 -0.381378 -0.020077
-0.415759 -0.614981 0.039810
-0.196560 0.164704 -0.161080
0.115768 -0.386961 -0.048394
0.056079 -0.579556 -0.066311
-0.058190 -0.087007 0.182112
-0.470222 -0.954910 -0.006915
0.227266 -0.655850 0.066396
0.491223 -0.759399 -0.053565
-0.627948 0.126536 -0.047415
-0.159038 -0.394323 0.011635
0.223237 -0.352374 0.021601
-0.156055 -0.516921 0.144316
-0.096020 0.465653 -0.047927
0.602913 0.181926 -0.101520
0.070730 -0.299615 -0.080601
-0.586116 -1.025033 0.120081
0.006932 0.371441 -0.023872
-0.074507 -0.548705 0.099680
0.912258 0.178744 -0.041975
0.042711 0.429415 -0.002873
-0.185812 -0.195055 -0.116450
-0.642484 0.166790 -0.023464
-0.113205 -0.280232 0.142701
-0.541446 -0.908036 -0.053549
-0.170814 -0.135082 0.129827
-0.265238 -0.405979 0.009110
-0.136425 -0.260508 0.022719
-0.042357 0.320919 -0.077421
-0.023340 0.093195 0.047562
-0.462812 -0.855234 -0.099967
0.406472 -0.801703 0.071501
-0.470825 0.155784 -0.053521
0.071542 0.450222 -0.074331
-0.164348 -0.669286 0.108178
0.144373 -0.636835 -0.065043
-0.023683 0.334026 -0.134158
0.190681 -0.091214 0.110008
-0.168734 -0.369335 -0.028005
0.230088 -0.575999 -0.074391
-0.062298 -0.014222 -0.225011
-0.089628 -0.114687 0.238144
0.419358 -0.910106 -0.121220
-0.469739 -0.879565 -0.059549
0.146980 0.122817 0.005192
-0.825431 0.180978 -0.051802
-0.010856 0.027855 -0.102442
-0.082091 -0.156219 -0.156690
0.109141 -0.288759 0.077364
0.062626 0.075281 0.181439
0.029803 -0.258739 0.017437
0.178708 0.068513 0.027210
0.127482 -0.374279 0.005914
0.077815 -0.299173 0.099902
0.009154 0.420072 -0.105033
0.060646 -0.306120 -0.204030
-0.258067 -0.420020 0.009323
0.468928 -1.090040 -0.121270
-0.402350 -0.922643 0.035072
0.164530 -0.546399 -0.044755
0.748892 0.228401 0.066461
-0.035497 -0.120621 0.000934
-0.015208 0.480485 -0.104201
-0.050526 -0.166685 -0.154719
-0.649536 0.262078 -0.132916
-0.138297 -0.464163 -0.080210
0.106276 0.050112 0.164377
-0.060582 -0.377293 0.136961
-0.039868 0.074213 0.084703
0.254314 -0.189919 -0.029579
0.345572 -0.751135 -0.031363
-0.030794 0.539968 0.042354
0.051835 -0.432329 0.036040
0.247520 -0.619356 0.113574
0.085480 0.105861 -0.116403
-0.239100 -0.601648 -0.025889
0.804410 0.231112 0.099821
-0.061180 -0.329104 -0.215820
0.134577 0.197769 0.037243
-0.205309 0.289850 -0.130228
0.896263 0.277832 -0.095201
-0.373548 -0.682269 -0.022236
0.856709 0.235506 -0.089807
-0.014113 -0.274463 0.245811
-0.179683 -0.488536 -0.115402
-0.190322 -0.383231 0.057403
-0.160595 -0.362481 0.022217
-0.264905 0.340230 0.007092
-0.135883 -0.506893 0.083949
0.449425 0.308056 0.012396
-0.706670 0.274022 -0.087644
-0.219868 -0.484577 0.166512
0.886675 0.229144 0.039605
0.286343 0.109818 0.054923
-0.041255 -0.168734 0.052780
0.364511 -0.756722 -0.073701
0.273444 -0.858577 0.006060
0.107176 -0.137539 -0.050325
-0.440770 -1.007974 -0.117177
-0.444767 -1.021462 -0.101832
-0.522461 -0.980984 -0.006524
0.176082 0.206352 -0.035479
-0.149506 0.297188 0.003227
0.038340 -0.421728 -0.134606
0.417958 -1.065421 -0.004148
0.050257 -0.336857 -0.190611
0.120211 0.317622 -0.034577
0.039340 0.130971 0.180765
-0.077841 -0.563153 -0.055280
0.213453 -0.503119 -0.145520
-0.627057 -1.014711 0.074533
0.579113 -1.046583 0.120321
-0.223313 -0.752386 -0.025301
-0.326961 -0.732634 0.108419
0.223936 -0.719297 0.008624
0.353518 -0.990851 -0.059521
0.314690 -0.850275 -0.120143
-0.009263 -0.330808 -0.099641
0.149460 -0.192530 0.097474
0.145639 -0.252172 0.054360
-0.251500 -0.365164 -0.019810
-0.211808 -0.047837 0.101354
0.256609 -0.569181 -0.053502
-0.195073 -0.473647 -0.027907
-0.146382 0.183970 0.142458
0.171302 -0.472360 0.071464
0.340523 -0.899900 -0.056598
-0.042328 -0.239634 -0.082736
-0.506563 -1.079005 -0.050614
0.085829 -0.342720 0.014012
-0.494202 -1.141451 0.182681
0.439539 -0.901853 0.094062
-0.518959 -1.041152 0.046220
0.106414 0.245973 0.095142
-0.353951 0.291167 0.039579
0.023152 0.002718 0.094523
-0.080648 -0.283094 0.204259
0.128091 -0.338392 -0.084764
-0.075191 -0.374804 -0.245658
0.022751 0.215216 -0.068327
0.369754 -0.997086 -0.045579
-0.478343 -0.944478 0.044068
-0.049398 -0.495222 -0.072183
0.149898 -0.354011 -0.210752
0.549055 -1.025050 0.138879
-0.170660 -0.054955 -0.125718
-0.062071 -0.523245 -0.055252
0.062429 -0.583120 0.029679
0.284193 0.286389 -0.094925
-0.201602 -0.108291 0.062156
-0.021633 0.569778 0.075861
0.247516 0.285997 -0.055892
-0.226922 0.047320 -0.025939
0.570800 -1.051281 0.174819
-0.043317 0.563414 0.045834
0.111762 -0.479149 -0.054133
-0.135212 0.153242 -0.002244
0.246412 -0.207552 -0.055802
-0.048699 -0.210153 0.228154
-0.197910 -0.185214 0.196903
-0.173925 -0.582184 -0.038479
-0.122798 0.076302 -0.083191
-0.136153 -0.355568 -0.247403
-0.310395 -0.606622 0.091754
-0.059366 -0.475338 0.031313
-0.053806 0.152166 -0.066355
-0.070489 -0.415544 0.065560
-0.051621 -0.195398 0.244484
-0.055471 -0.347638 0.021830
-0.665227 0.261914 -0.064734
0.026287 0.283880 -0.075340
0.813948 0.301461 0.001519
-0.380375 -0.860753 0.023621
-0.135533 0.142016 0.017571
0.907053 0.243561 0.035362
-0.280431 0.276625 -0.107772
0.283493 -0.671983 0.060569
0.410692 -1.076975 0.042674
0.183790 -0.170479 -0.061838
-0.003114 -0.037110 -0.134528
0.444182 -0.955041 -0.008917
-0.059500 -0.340447 0.180997
0.071452 -0.329912 0.003325
0.349592 -0.767275 -0.071515
0.712137 0.182640 0.049380
-0.172519 -0.247071 0.092256
0.026137 0.201060 0.056801
0.018094 0.147110 -0.078072
0.075527 -0.499715 0.052664
0.324216 -0.586935 0.039804
-0.096371 0.264539 -0.016711
-0.090289 -0.353185 0.150460
0.023838 -0.344847 0.022830
-0.182191 -0.343809 -0.173620
-0.941378 0.193311 -0.124016
-0.028259 -0.108790 -0.134319
0.081483 -0.160536 0.233544
-0.125870 0.058418 -0.023433
-0.232542 -0.063042 0.133425
-0.134646 -0.192853 0.041630
0.236134 -0.372353 0.008710
0.640493 -1.045888 0.017051
0.221044 -0.512746 0.006057
-0.278702 -0.267599 0.021235
0.276441 -0.619070 -0.117374
-0.195072 -0.483150 0.045673
0.292643 -0.295695 0.065585
-0.192485 -0.692232 0.036710
-0.349700 -0.851527 -0.137940
-0.752232 0.235176 0.003368
0.429340 -1.057577 0.073069
-0.058005 0.388076 -0.122142
-0.394314 -0.824721 0.040095
0.201841 -0.483545 -0.054976
-0.157234 0.155204 -0.024875
-0.177797 -0.307433 0.074686
-0.064426 0.528594 -0.064750
0.151897 -0.107476 -0.125240
-0.419887 -1.009094 -0.029154
0.061300 -0.314558 0.236851
-0.199984 -0.092208 0.001702
0.110373 -0.203804 -0.029316
-0.028047 -0.040698 0.086598
0.600783 0.326971 -0.068675
-0.048904 -0.011883 0.098405
0.072384 -0.238711 0.097478
-0.688183 0.223094 0.041399
-0.065395 0.202164 -0.031211
-0.052460 0.246459 0.102396
-0.205247 -0.387561 -0.088740
-0.422946 0.302626 0.000916
0.078760 -0.238823 -0.215197
-0.050775 -0.113580 0.078024
0.750318 0.279360 -0.009152
-0.363569 -0.840798 -0.002932
0.138532 -0.604741 0.099086
-0.812384 0.136467 0.002611
0.435695 0.162670 -0.086995
0.482887 0.140748 -0.025772
-0.105828 0.419901 0.065233
