ply
format ascii 1.0
comment ply file 
element vertex 1672
property float x
property float y
property float z
end_header
0.202867 -0.053214 0.184455
0.589215 0.119781 0.034718
0.900315 0.135940 -0.030657
0.502902 -0.823295 -0.121521
-0.077683 -0.388626 0.256451
-0.149279 -0.222763 0.232652
-0.091241 0.321247 -0.145359
-0.287223 -0.009496 0.042192
-0.112409 0.031067 -0.218216
-0.652668 -1.057794 0.118951
-0.251263 -0.551399 0.206731
0.119614 -0.703979 -0.026605
-0.648193 0.346287 -0.026844
-0.549292 0.162679 0.073276
-0.338655 -1.034961 0.044633
-0.555075 -0.908389 -0.094114
-0.191652 -0.129009 0.203709
0.258350 -0.267440 -0.133794
0.180778 -0.784307 -0.077834
0.251210 -0.019577 -0.090472
0.342060 -0.857284 -0.173495
0.113123 -0.249276 0.251317
0.017715 -0.542857 0.134960
0.173000 -0.669579 0.150564
0.411185 0.092749 0.018307
0.782534 0.128923 0.057298
-0.265080 -0.292908 0.141999
0.114680 -0.688735 -0.055235
0.469570 -0.658155 -0.004668
0.066151 -0.492960 -0.196230
0.046059 -0.573827 0.132546
0.215513 -0.771026 -0.122867
0.141649 -0.173964 0.232653
0.069106 0.548614 0.156608
0.097477 0.540218 -0.119724
0.239042 -0.075464 -0.071592
0.313142 -0.996501 0.038573
0.078296 -0.104572 0.253436
0.608090 0.340374 -0.060081
0.627601 0.235537 -0.154059
0.038548 -0.404903 -0.267004
0.568448 -1.161802 0.178842
-0.137439 -0.394282 0.247158
-0.117991 0.426722 -0.106764
-0.081490 -0.612541 0.129529
-0.151956 -0.661745 0.142181
-0.548412 0.105951 -0.012824
-0.567514 0.142923 -0.119034
-0.158392 -0.226237 -0.249106
-0.453314 -1.154877 -0.089129
-0.184231 -0.148304 -0.164734
0.418104 -0.904069 -0.174596
-0.180798 -0.257231 -0.234064
-0.310307 -0.992228 0.037900
0.108196 -0.598093 -0.119359
-0.052429 -0.329201 -0.283218
-0.491663 -1.184536 0.011541
-0.488617 -1.072533 -0.181132
-0.120475 -0.091544 -0.223602
-0.375755 -0.491778 0.051208
0.227936 -0.416384 -0.207871
-0.294996 0.055400 -0.043454
0.641520 -1.116855 0.133790
-0.372359 -0.638407 0.145172
-0.230071 -0.075045 0.170960
-0.275627 -0.145302 0.050234
-0.289696 0.165440 0.102131
-0.177956 -0.340335 0.228831
-0.214914 0.347572 0.062918
0.086129 -0.273665 0.261388
0.212790 -0.181958 0.198739
-0.074204 -0.505034 0.186926
-0.204332 -0.386072 0.221966
-0.127246 0.475498 0.139427
0.000000 -0.258723 0.279870
0.516241 -1.191162 0.088306
0.384943 -1.049703 0.092664
0.450173 -0.759936 -0.155948
0.018325 0.339786 -0.143151
0.796021 0.137209 -0.138459
0.388610 -0.571281 -0.052922
0.056987 0.383462 -0.131505
0.000000 -0.112994 0.262173
0.101065 0.583901 0.111292
0.003644 0.150269 0.224599
0.206074 -0.169830 -0.144842
-0.802270 0.139643 -0.143838
-0.603105 -1.002384 -0.140416
0.162350 -0.503506 -0.208753
0.671723 0.343505 -0.026839
-0.237217 -0.037028 0.159864
-0.242717 -0.517344 -0.184065
0.141972 -0.395331 -0.259814
0.347159 -1.047780 0.046652
0.206759 -0.193192 0.204485
-0.309284 -0.727098 -0.179350
-0.503223 -1.190721 0.133916
0.513644 -1.193420 0.138851
0.389298 -0.555826 0.068941
0.433218 0.350088 -0.068204
0.670870 0.209476 -0.159455
0.656303 -0.984844 0.096152
-0.080290 0.602926 0.128383
-0.238413 0.178769 -0.159688
-0.706021 0.120145 -0.050625
-0.586664 -0.935569 0.022726
-0.104948 0.159635 -0.212023
0.281959 -0.949495 0.031167
0.495449 -0.811139 -0.125436
-0.353754 -0.893674 -0.167196
-0.246523 -0.539397 0.209262
0.212763 -0.379023 -0.222180
0.297618 -0.344780 -0.119084
0.469914 0.345571 -0.073970
0.382377 -0.857719 -0.179478
0.288207 -0.754012 0.140049
0.324256 -0.400023 -0.098633
0.442747 -0.784407 -0.162425
-0.554448 -0.860780 -0.000357
-0.205177 -0.360342 -0.229335
-0.132799 0.020780 0.212287
-0.101292 -0.517673 0.196202
-0.438520 -0.930554 -0.171806
-0.377142 -0.966454 -0.154598
0.197857 0.025622 0.174027
0.201383 -0.351002 -0.232912
0.293222 -0.551108 -0.143522
0.218633 -0.135870 0.188714
-0.473015 -0.958458 -0.166114
0.206513 -0.833568 0.001981
0.506086 -0.722574 -0.029579
0.091211 0.134001 -0.219417
0.706033 0.120389 -0.052406
-0.159326 0.404282 0.029693
-0.291283 -0.572367 -0.148129
-0.120787 -0.089428 -0.222911
0.195523 -0.818942 0.009332
-0.681195 0.139547 0.064090
-0.548731 0.357360 -0.029000
0.710637 0.120483 -0.050648
-0.143370 0.226420 0.153911
0.349658 -0.536513 0.124359
-0.677245 0.245262 -0.147970
0.915402 0.292140 0.008721
-0.014263 -0.156757 -0.268151
-0.437577 -1.125883 0.230192
-0.161010 0.481536 -0.006840
-0.344561 -0.515442 0.120502
-0.129545 0.342280 0.110765
-0.583411 0.168316 -0.134792
0.423802 -0.597842 -0.015682
-0.079136 0.628894 0.050181
-0.042625 0.308079 0.164683
0.269670 -0.349436 0.147841
-0.603604 0.331936 0.006984
0.186369 -0.355982 0.227035
0.513235 0.337794 0.015188
0.877452 0.135902 -0.037375
-0.231432 -0.180888 0.161158
0.073693 0.618546 0.088567
0.943235 0.278596 0.012952
0.560416 -1.166219 0.159749
-0.045388 -0.404871 0.247863
0.332709 -0.669538 0.155287
-0.764761 0.126417 0.027281
-0.927789 0.272777 0.034769
-0.423329 -1.121426 -0.114349
-0.226459 -0.747077 0.117109
-0.417728 -0.703758 0.114498
-0.100434 -0.321924 0.254161
-0.276146 0.227087 -0.152139
-0.804488 0.280133 0.081744
-0.668577 0.177922 0.079674
-0.634424 -1.001414 0.158410
-0.565281 -0.945460 0.102646
-0.055928 0.587672 -0.110425
-0.253332 -0.286251 -0.152567
0.300983 -0.279158 0.051058
0.273101 -0.266845 0.120364
0.042010 0.625614 -0.078681
-0.645807 -1.076124 -0.011122
-0.574383 -1.147837 0.196382
-0.259945 -0.214526 -0.061323
0.165589 0.101373 0.180150
-0.156826 -0.741773 0.038129
-0.161877 -0.573143 0.191183
-0.157720 0.516760 -0.000704
0.393098 0.149540 0.075843
0.067520 -0.566134 0.148481
-0.467281 0.296010 0.061502
-0.179444 -0.187193 -0.194781
0.648877 -0.986891 0.063474
0.106310 -0.570359 0.168086
-0.271901 -0.335308 0.141080
0.655821 -1.036878 0.037645
-0.439422 -0.881275 -0.168754
-0.510175 0.215847 0.085956
0.115035 0.385109 0.146929
-0.773438 0.230828 -0.173912
-0.494423 -1.115871 -0.158165
0.171944 -0.235595 -0.234462
0.232389 -0.402775 -0.201048
0.047174 -0.596209 -0.053526
-0.066506 -0.322098 0.260829
-0.481510 -0.735257 -0.096055
0.342393 -0.414194 0.056390
-0.513813 0.327643 -0.094784
0.312568 -0.416057 0.120475
0.095843 -0.090871 0.243540
0.984280 0.182799 -0.052720
-0.240273 0.165418 0.124692
-0.371458 0.271897 -0.144798
-0.106834 -0.186763 0.249695
0.362652 -0.539262 -0.074984
-0.681108 0.133071 -0.074361
-0.183655 0.301749 -0.142851
0.169139 -0.480110 -0.217182
-0.109131 -0.581750 0.163081
-0.902257 0.136055 -0.068974
0.674131 0.307087 -0.120863
0.314972 -0.522926 0.161776
-0.358638 -1.062261 0.034899
0.277349 -0.696725 0.166460
0.459250 -0.714573 0.074537
-0.533378 -0.824552 0.015127
0.547911 -0.843965 -0.033422
-0.345627 -0.988255 0.061905
-0.812459 0.312102 -0.095022
0.355819 0.299356 -0.124458
0.695976 0.320707 -0.095165
-0.309492 -0.309179 0.020272
-0.550059 -1.165786 -0.081297
-0.450366 -0.854235 0.106416
-0.449227 -0.629149 -0.016862
-0.729248 0.253235 0.084332
-0.924673 0.267569 0.043712
-0.398389 -0.735661 0.130231
-0.523845 0.223224 -0.154780
0.187847 -0.212239 0.214861
0.547807 -0.934577 0.056664
0.724391 0.215126 -0.165355
-0.136198 0.577982 0.009907
0.476105 -1.154678 0.236822
0.128746 -0.371588 -0.265852
-0.061076 -0.612628 0.069703
0.121094 -0.362634 -0.267754
0.462282 -0.738500 0.077325
-0.623610 -1.045333 -0.083179
-0.053730 -0.122011 0.259755
0.245990 0.147382 -0.147814
0.859960 0.296310 0.022613
0.273485 -0.768074 0.124335
-0.523496 -0.799101 0.012436
-0.433046 0.090252 -0.027129
-0.077655 0.611321 0.105868
-0.095369 -0.665799 -0.029936
0.057085 0.071435 0.224964
-0.222060 -0.856697 0.004106
-0.366260 -0.461702 0.034966
-0.210293 -0.087753 -0.134741
-0.313268 0.279276 0.091787
0.193091 -0.590287 -0.164430
-0.617340 -1.096398 0.214899
-0.280523 -0.264710 -0.047966
0.789809 0.314815 0.006593
0.873346 0.222271 0.097170
0.529847 -1.089473 0.260531
0.437820 -0.907827 0.106406
0.068577 -0.035007 0.240059
-0.342102 0.289829 -0.135018
-0.215724 0.122801 0.146651
0.038696 0.272019 -0.184126
0.268014 -0.834095 -0.139574
0.512351 -1.152816 0.234015
0.364217 -1.009248 0.075671
-0.580189 -1.136522 0.208718
0.211279 0.071531 -0.140778
-0.825620 0.280894 -0.163003
-0.271046 -0.749198 0.136405
-0.296153 0.077987 0.050707
-0.622184 -1.125199 0.061886
-0.835470 0.133546 -0.034071
0.357054 0.340984 0.001892
-0.101677 0.081236 -0.218933
0.873616 0.305617 -0.088870
0.092063 0.248788 0.152248
0.179237 -0.448331 0.224840
0.123465 0.601266 0.010720
-0.429913 0.188943 0.084831
-0.216240 -0.696638 -0.138894
-0.367469 -1.066923 -0.033184
0.869414 0.310967 -0.013089
0.080600 -0.024837 0.236627
-0.116549 0.090187 -0.208006
0.799019 0.313590 -0.094134
0.360000 -0.891695 0.108890
0.111866 -0.361933 -0.269702
-0.437522 0.175818 -0.145896
-0.951691 0.158786 -0.004772
-0.908303 0.225150 0.080312
-0.495862 -1.187727 0.111553
-0.961856 0.275146 -0.010208
0.494696 0.252710 -0.148965
0.280353 0.174459 0.103534
0.692246 0.247907 -0.146235
-0.965550 0.253707 -0.001812
-0.275899 -0.550548 0.194470
-0.291058 -0.258247 0.039179
0.018907 -0.201488 -0.273311
0.175670 -0.120058 -0.171038
-0.797671 0.256119 0.100270
-0.174987 0.202911 -0.182811
-0.055451 0.261386 0.150884
0.169177 -0.019633 -0.168340
0.626144 0.227199 -0.155560
0.195026 0.153881 -0.169549
0.342153 0.268445 -0.145253
-0.982275 0.233987 -0.038830
0.662103 -1.069118 0.074138
-0.479108 0.342202 0.016577
-0.433091 0.097994 -0.093991
0.439293 0.188465 -0.151723
-0.663899 0.131234 0.043490
-0.371912 0.108939 0.046640
-0.506865 -0.890421 0.071545
-0.078525 -0.305033 -0.278370
-0.609339 -0.958104 0.121392
0.160946 0.412883 -0.009897
-0.535189 0.108095 0.009169
-0.084961 -0.539422 -0.162470
-0.183665 0.053593 -0.154532
0.356456 -0.508528 0.091760
0.538039 0.106814 -0.000192
-0.615121 -1.069669 -0.104408
0.037215 -0.011797 0.240233
-0.629449 -1.064015 -0.062370
0.055174 -0.584028 -0.081585
0.511068 -0.759365 -0.063883
-0.162285 -0.149486 -0.198064
0.405713 -1.123907 -0.068413
-0.879925 0.291392 -0.137167
0.401869 0.230575 0.088539
-0.331481 0.251204 0.098125
0.019657 0.638792 -0.072848
-0.044315 -0.062786 -0.246015
0.652198 -1.077953 0.110703
0.660115 -1.035260 0.056390
-0.307888 -0.299869 0.035155
-0.145674 0.547185 -0.039285
0.226127 0.055198 -0.130361
0.098462 0.073450 -0.220439
-0.050884 -0.468870 -0.225053
-0.478754 -1.160572 -0.108445
0.718539 0.297974 -0.126832
-0.193818 -0.742333 0.102767
0.029889 -0.568509 0.103745
-0.186264 0.155321 -0.173901
0.014471 0.388161 -0.142697
-0.525824 -1.049058 0.261399
0.524985 0.224598 0.088741
0.630794 0.330321 -0.080899
0.104682 -0.302429 0.255106
-0.833746 0.293093 0.039760
0.048128 0.582596 -0.120709
0.485761 0.107103 -0.080476
-0.443156 0.257147 0.083553
-0.113119 -0.566247 -0.159051
-0.476501 -1.025363 -0.171588
0.405363 0.214241 -0.155094
-0.052996 -0.346743 0.261242
0.085163 0.467539 -0.138175
0.750538 0.251932 -0.160932
0.638226 -1.040556 0.181904
-0.073715 0.352679 -0.124304
-0.202178 -0.629635 -0.145466
-0.455217 -0.636832 -0.016117
-0.140223 0.491904 0.105186
-0.022970 0.285602 0.151539
-0.194259 -0.687071 -0.122454
-0.330791 -0.474459 0.121811
0.307119 0.177375 -0.156248
-0.033360 -0.406363 0.247879
-0.094330 0.325271 0.139013
-0.396123 0.141313 0.068808
-0.412107 -0.670269 0.111388
-0.966962 0.269682 -0.016923
0.485840 -0.771238 0.063147
-0.056476 -0.217541 -0.273490
0.377500 -0.565413 0.093333
0.038213 -0.146944 -0.262622
0.267449 -0.645008 -0.150796
-0.286980 -0.823281 -0.153047
0.260468 -0.463788 0.194146
-0.546012 -1.073266 0.260559
-0.335974 -1.025538 0.016398
0.216886 0.118488 -0.148706
-0.424802 -1.025784 -0.153715
0.310291 -0.889819 0.088309
-0.049464 -0.069772 -0.244707
0.233414 0.159342 0.130067
-0.145341 0.384117 0.083474
0.652655 -1.027633 0.031030
0.591120 -0.976490 0.200953
0.266865 -0.663169 -0.154307
-0.070802 0.047040 -0.231067
-0.011923 0.416559 -0.155049
0.023238 0.304620 -0.163731
-0.098963 0.557472 -0.103755
-0.606161 -1.129336 -0.034360
-0.373217 -0.567939 0.101606
-0.058858 -0.291417 -0.280531
-0.646533 -1.061779 0.169158
0.265418 -0.365210 0.157063
0.399931 0.294014 -0.130860
0.110786 -0.408623 0.239412
-0.031913 0.322714 0.176393
0.255011 -0.513286 -0.177717
0.396776 -0.630999 -0.111080
0.072225 -0.083973 0.249826
0.703861 0.335006 -0.050763
-0.511990 -1.187579 0.038534
0.921096 0.219217 -0.162515
0.258717 -0.105834 0.077101
0.910536 0.285916 -0.142146
0.743006 0.198228 0.104349
0.394219 -0.825948 0.122600
0.536540 -0.832538 0.015800
0.548238 -0.936788 0.063616
0.066534 -0.398623 0.250392
-0.254115 -0.122675 -0.033544
0.489844 -1.185260 0.094919
-0.730686 0.251698 -0.152768
-0.566525 0.271418 0.064916
-0.309836 0.072155 -0.085579
-0.228088 -0.284968 -0.186458
-0.790939 0.293086 -0.141291
-0.529449 0.232010 0.089983
0.467130 -0.911072 0.097433
-0.298618 0.210836 0.101768
0.420113 -1.008089 0.151247
-0.210692 -0.044639 -0.130555
-0.415202 -0.982496 -0.156783
-0.153302 0.502717 -0.027476
0.164218 -0.538941 0.200054
-0.369977 0.146125 0.077979
0.454846 -1.173333 0.192088
-0.351468 -0.673693 -0.161978
0.920958 0.287794 -0.129237
0.209384 -0.683355 -0.137088
-0.277898 0.045571 0.069891
0.338794 -0.500108 -0.094309
0.040412 -0.532627 -0.128570
0.388719 0.301583 -0.122265
0.235584 0.135745 0.131640
0.213478 -0.840085 -0.021139
0.711010 0.293563 0.051069
-0.053014 0.642083 0.041713
0.350409 -1.044385 0.004885
-0.431735 0.325139 -0.096240
-0.367984 -0.998147 -0.128135
-0.495034 -0.790267 0.059077
0.496514 -0.754325 -0.084441
0.133618 -0.466053 -0.226022
-0.066445 0.621079 -0.053471
0.174416 -0.016884 -0.162957
0.320573 0.068979 -0.063495
-0.654241 0.243621 0.082703
0.416694 -1.124598 0.202689
0.326466 -0.445754 -0.100960
0.169528 -0.042249 -0.170368
-0.599875 -1.136279 0.024343
0.105126 -0.283909 -0.273368
0.116130 -0.684323 0.022564
-0.417164 0.280839 0.082133
-0.696198 0.145047 -0.083774
-0.485988 -1.056676 -0.178424
0.307370 0.200888 -0.156902
0.110563 0.339612 0.133105
0.386406 0.244711 0.090692
0.029169 -0.499765 -0.165138
0.507650 -0.805698 0.050993
-0.050019 0.022822 0.232997
0.414691 -1.121208 -0.093279
0.255921 -0.427605 -0.175320
0.406345 -0.684227 0.121480
0.077658 0.180121 0.193845
0.053427 -0.375858 -0.272850
0.336806 -0.554482 0.151391
-0.221443 0.357517 -0.013010
-0.081663 0.141146 -0.216808
-0.488902 -0.959795 -0.158157
-0.474046 0.144558 0.049431
-0.127264 0.365410 0.129070
0.929447 0.148648 -0.000627
-0.872106 0.134927 -0.078175
0.393006 0.158344 0.082727
0.190962 0.025566 -0.147096
-0.127690 0.027508 -0.203728
0.378240 -0.592422 -0.085181
-0.269444 0.350036 -0.010481
-0.393917 -0.836512 0.121505
0.336207 -0.521335 -0.098895
0.051409 0.132837 0.218391
-0.782904 0.124854 0.025234
0.765664 0.128252 -0.087477
-0.218280 -0.238331 0.191299
0.020554 0.656388 0.024575
0.105132 0.471546 -0.127210
-0.319451 -0.591525 -0.135935
0.633736 0.346067 -0.036668
0.143236 0.360773 0.091231
-0.084745 0.255414 0.149857
-0.288170 -0.263222 0.093327
-0.374782 -1.012737 -0.127897
-0.267880 -0.062464 -0.007548
-0.379900 -0.808639 -0.177153
0.608144 -0.959183 0.016735
-0.891828 0.296838 0.007554
-0.356537 -0.606223 -0.119382
-0.051182 -0.416714 -0.258492
0.009424 -0.478785 0.187966
0.534897 -0.940569 0.087771
-0.635602 -1.022042 -0.035128
-0.520323 -0.934758 0.081212
-0.147464 -0.156209 0.227711
0.682109 0.209397 0.086993
0.123881 -0.310013 0.250631
0.322814 -0.649645 -0.159171
0.215778 -0.211606 -0.157300
-0.310896 -0.637300 0.175807
-0.576852 -1.146735 -0.088138
-0.094878 -0.639470 -0.062904
0.293221 0.288582 0.082235
0.629602 -0.986747 -0.002774
-0.272228 -0.474542 -0.160680
-0.129593 -0.523969 -0.197656
0.147686 -0.605079 -0.148346
0.012368 0.127455 0.226020
0.230200 -0.191492 -0.110272
0.715850 0.169830 -0.121771
-0.220727 0.212915 0.130971
0.238870 -0.869737 -0.065901
0.261093 -0.252955 -0.107863
-0.150871 0.362556 -0.083318
0.079913 -0.537609 -0.159779
0.403248 -0.570841 0.057738
-0.298030 0.056949 0.016387
-0.354390 0.119968 -0.131022
0.905933 0.293017 -0.119128
-0.347764 -0.776264 -0.182085
-0.156272 0.524643 -0.003227
0.175461 -0.350416 -0.247695
-0.211785 -0.242600 0.197747
-0.125260 0.198062 0.173466
0.643172 0.124470 -0.075543
0.075580 0.064116 -0.228526
0.618515 0.326350 -0.093265
0.483639 -0.973956 0.184447
0.072512 -0.357414 -0.275859
0.233312 -0.651523 0.181193
0.446550 0.127801 0.041625
-0.166278 0.101161 -0.170038
0.440215 -1.168903 0.172752
-0.449767 -0.924363 0.101683
-0.260431 -0.072983 -0.017561
0.762618 0.233534 0.105488
-0.239633 -0.642901 -0.142435
-0.560449 0.110406 -0.040361
-0.121203 -0.375188 0.248555
0.470043 -0.719161 -0.103879
-0.174754 -0.027183 -0.163679
0.250933 -0.885597 -0.075268
-0.743288 0.321736 0.003356
-0.472086 -1.054841 0.259076
-0.580994 0.112883 -0.049872
0.314537 -0.451449 -0.113093
0.313424 -0.462456 -0.115249
0.673759 0.274681 -0.137554
-0.093323 -0.205692 -0.263831
-0.570666 -0.910948 -0.050169
-0.286099 0.023925 0.052225
0.251645 -0.113139 -0.038725
0.007717 0.055182 0.236820
0.313542 0.074957 -0.094379
0.566763 0.172054 -0.137383
0.270194 -0.454416 -0.160970
0.154276 -0.099123 0.217360
-0.649137 0.207776 0.094001
-0.619030 0.120590 0.016979
-0.827255 0.290041 0.056130
-0.550249 0.344017 -0.004419
-0.263474 -0.349467 0.153739
0.327240 -0.623555 0.167859
0.857585 0.282932 -0.167928
-0.691544 0.122734 -0.025174
0.590548 0.258543 -0.147702
-0.349712 0.083270 0.019242
-0.008825 -0.039465 -0.248484
-0.302863 -0.380887 0.116771
0.170594 0.361096 -0.059680
0.413941 -0.653163 -0.120226
0.268255 0.069023 0.095640
0.212652 -0.341187 0.197719
-0.461241 -0.849462 -0.160141
0.214911 -0.745902 0.112705
-0.633023 0.148860 -0.106694
-0.145491 0.561194 -0.010975
-0.384377 0.345317 -0.062438
-0.521440 -1.018801 0.255329
-0.334821 0.269036 -0.145110
0.452996 -1.081642 0.255823
0.316417 -0.435927 -0.109751
0.036342 -0.234192 -0.276430
-0.092882 -0.160425 0.253665
0.946990 0.282501 0.004844
0.865905 0.249366 -0.189127
-0.079237 -0.551405 0.163186
-0.866090 0.215860 0.102057
0.454216 -1.173569 0.151259
0.340318 -0.899552 -0.149558
0.178461 -0.785632 0.020619
0.016720 0.084377 -0.222176
0.487596 0.106936 -0.073076
-0.736952 0.123176 -0.014282
-0.504736 0.277628 0.067457
0.509214 0.146300 0.051804
0.073575 0.276782 0.139830
-0.568499 0.246335 -0.151216
-0.342087 0.329578 -0.089739
-0.232486 -0.177192 -0.099440
-0.543380 -1.174075 0.105896
-0.271268 -0.919527 0.032409
-0.192021 -0.179675 -0.171646
0.098453 -0.294729 0.257036
0.347035 -0.405303 0.036571
0.220975 0.070478 0.151604
0.338134 -0.492097 0.118011
-0.076511 -0.578318 0.146370
-0.400452 -1.102133 0.169471
-0.419938 -0.993603 -0.155036
0.407264 -0.886695 0.115060
-0.344499 -0.421752 -0.040690
0.122085 -0.701221 -0.010465
0.034662 -0.385350 -0.271956
-0.135778 -0.309471 -0.266513
0.124146 -0.271232 0.249193
0.476536 -0.976183 0.183528
-0.064895 -0.011893 -0.236343
0.377316 -0.636632 -0.134369
-0.471746 0.157050 -0.130821
0.192638 -0.268721 0.216308
0.576425 -1.119043 0.238603
0.064651 -0.282278 -0.279559
-0.063150 -0.076572 -0.240567
0.121529 -0.512106 -0.203161
-0.244687 0.089478 0.133287
0.294189 -0.379535 -0.125809
0.459101 -1.171307 0.014861
-0.322246 0.197764 0.098384
0.036224 -0.472850 -0.217952
-0.970378 0.166423 -0.060803
0.230311 -0.703975 0.159747
-0.087865 0.348142 -0.123027
0.841569 0.292658 0.038021
0.194612 -0.743681 -0.106185
0.340233 -1.024043 -0.023184
0.215478 0.352507 -0.061729
0.499248 0.183159 -0.145338
-0.322085 -0.381659 0.073424
-0.163107 0.445188 -0.020793
0.292349 -0.303197 -0.053147
0.321260 0.248428 -0.148651
0.251605 0.146207 0.119532
0.077572 -0.637062 -0.035044
0.413026 0.130684 0.055040
-0.163040 0.452593 -0.016473
-0.121882 -0.006096 -0.212891
-0.120402 -0.339008 0.248668
0.159212 0.365338 -0.037276
0.019199 -0.118451 0.262236
-0.373154 0.110109 -0.122444
0.336715 -0.533111 -0.099553
0.636677 0.329717 0.009143
0.726721 0.267179 -0.142903
-0.590593 -1.008614 0.222826
0.170812 -0.771112 0.018452
0.663793 0.193291 0.085855
-0.110775 0.586680 0.081874
-0.624173 -1.101228 0.193435
-0.303383 -0.446738 -0.123483
0.257597 -0.141343 -0.029903
-0.496575 0.140249 0.044135
-0.406275 0.091229 -0.087345
0.381719 0.298954 -0.125150
-0.345552 -0.883452 0.106895
0.016412 -0.560268 -0.063320
-0.389977 0.240260 -0.150445
-0.398685 -0.551733 -0.006785
-0.378343 0.275925 -0.144126
0.120247 -0.157371 -0.242091
-0.033114 -0.489104 -0.190252
0.372619 -0.558721 0.096930
0.474040 0.210068 -0.156449
-0.526692 -0.934383 0.074422
-0.465594 -0.669402 0.019527
-0.760449 0.262397 0.085721
-0.645390 -1.019303 0.006952
-0.445402 -0.984170 0.158781
0.411074 0.108687 -0.115616
0.506324 0.107426 -0.041229
0.775137 0.325142 -0.058075
-0.534417 -0.921505 -0.118874
-0.419056 0.091199 0.007668
0.658383 -1.087827 0.043424
-0.467660 -0.897411 0.098232
-0.464505 -0.918608 0.097688
-0.177783 0.287853 -0.156682
0.611604 -1.129365 0.024337
0.700838 0.330808 -0.068549
-0.152952 0.547149 0.028022
0.380784 -1.100925 -0.014205
-0.267799 0.121048 -0.137458
-0.266705 -0.787444 0.111989
0.175384 0.270450 -0.166889
0.972315 0.249355 -0.055534
0.078395 -0.517041 -0.181051
-0.414363 -0.843474 -0.171871
0.585751 0.143168 0.057973
0.132783 -0.269083 0.245233
0.420993 0.207838 0.086040
0.762899 0.305320 0.035327
0.632667 -1.083540 -0.049282
-0.158420 -0.494319 0.210340
-0.984537 0.224787 -0.020268
0.140317 -0.604602 -0.142025
-0.361936 -0.763226 0.131969
-0.112922 0.422836 0.153236
0.350648 -0.967947 -0.125086
-0.014120 0.281377 -0.175840
0.274222 -0.923732 0.033178
-0.108971 -0.541242 0.186988
-0.285463 -0.638086 -0.154534
0.236509 -0.745702 -0.142189
0.475908 -1.132080 0.244152
0.863364 0.244978 0.096367
0.069963 0.609549 -0.076261
0.332032 -0.374207 0.048317
-0.132140 0.011593 -0.201065
-0.663154 0.231569 0.090653
0.329430 -0.462383 -0.099709
0.573333 -1.158483 0.155271
0.413136 0.117323 0.041864
-0.284923 0.212833 -0.154683
-0.322080 -0.534328 -0.113884
-0.377672 -0.704193 0.136906
-0.937357 0.277359 -0.130597
-0.185144 -0.442562 0.227138
-0.351357 -0.914329 -0.153823
-0.387500 0.103687 0.036552
-0.373552 -0.677701 0.140062
-0.494849 0.122967 0.026428
-0.520828 0.347767 -0.058529
-0.412361 0.288330 -0.137351
-0.274400 0.108420 -0.132591
-0.371316 -0.530206 -0.065699
-0.253043 -0.059898 -0.048873
0.070751 0.349244 -0.128417
0.558815 -1.160280 0.003662
0.121312 -0.614312 -0.112411
0.218043 0.152190 0.141313
0.025076 -0.189850 0.273475
0.229803 -0.384667 0.197299
-0.427019 -0.804759 0.116848
-0.556407 0.310363 -0.114852
-0.867350 0.309080 -0.077135
0.472015 -1.177449 0.088176
-0.245889 0.018345 -0.109863
0.262951 -0.091074 0.005441
0.349184 -0.532810 -0.087423
0.464645 -1.132297 -0.143247
0.232095 -0.073281 -0.101668
-0.304668 -0.908582 -0.124848
0.070709 -0.578969 0.142877
-0.267284 -0.004337 0.078841
-0.023829 0.507412 0.188574
-0.123086 0.381973 0.136094
0.453150 -0.641711 0.008622
-0.378761 -1.063238 -0.088406
0.467248 0.097139 -0.012040
0.504676 -0.748916 0.005295
-0.369886 -1.073763 -0.013374
-0.573923 0.113196 -0.055121
0.506943 -1.053475 0.261567
-0.314983 -0.353162 -0.047919
-0.585194 0.134112 0.048737
0.615900 -1.009245 -0.107184
0.646572 -1.034897 0.001035
-0.891468 0.252959 0.081462
-0.551547 -1.167741 0.078319
0.904444 0.148319 0.035661
0.590707 -0.960730 0.181113
0.294010 -0.285578 0.086679
0.474805 -0.806085 -0.144783
0.833720 0.250281 0.105263
-0.360841 -1.066779 0.041563
0.257424 -0.098577 0.082915
0.474483 0.133453 -0.118893
0.785574 0.262160 -0.170133
0.276954 -0.242321 -0.026839
-0.045144 0.398094 0.201959
0.663465 -1.054595 0.056792
-0.400436 0.318713 0.052022
-0.227605 -0.080090 -0.114169
0.322166 -0.446707 0.121097
-0.237555 -0.286717 0.170135
0.612174 -1.132390 0.085284
0.379915 0.188292 -0.156349
0.317057 -0.336891 -0.003050
0.534673 -1.164968 0.212867
-0.255052 -0.190862 -0.057849
0.231479 -0.656135 -0.142788
-0.393140 -1.028038 0.138931
0.243749 -0.807785 0.090735
0.710267 0.227492 -0.157082
0.623134 -1.063313 -0.081456
0.109484 -0.680686 0.012925
-0.905164 0.179616 0.075494
0.662026 0.275450 -0.137889
-0.236074 -0.277427 0.171945
-0.031586 -0.583532 0.029278
0.184636 0.072422 0.173733
-0.098409 0.222775 0.165806
0.130049 -0.684425 0.085812
-0.235721 -0.110958 0.144395
0.565295 -1.034542 0.251867
0.476090 -1.054274 -0.174721
0.209442 0.353215 -0.066195
0.408865 0.234259 -0.151596
-0.063823 -0.203230 0.268161
0.207845 0.266629 0.117025
0.560320 -1.051420 0.257983
-0.577872 0.209126 0.094744
-0.872936 0.135778 0.038423
-0.240667 -0.136158 -0.087162
0.270643 -0.458852 0.182856
0.600846 -1.032926 0.226021
0.422175 -0.608410 -0.059159
0.862590 0.318053 -0.033276
-0.112892 0.612819 0.035232
-0.205977 -0.341274 0.203798
-0.741981 0.129074 0.035373
-0.015284 -0.173087 0.271193
0.053608 -0.151477 -0.259572
-0.249984 -0.099422 -0.037302
0.210885 0.230520 0.132314
-0.444488 -1.041627 -0.162334
-0.761735 0.230345 -0.171519
-0.445681 -1.050664 0.246380
-0.280677 0.220774 0.104337
-0.097676 0.587361 -0.079021
-0.742195 0.151158 -0.116693
0.164909 -0.139755 -0.188406
-0.230615 -0.234628 0.178905
0.305739 -0.346633 0.084999
-0.359575 -1.052997 -0.019634
-0.248089 -0.425478 -0.184550
0.305938 -0.335683 -0.057422
0.217263 -0.073752 -0.126903
-0.601617 0.115577 -0.060937
0.010850 0.256437 -0.189620
0.433291 -1.012697 0.197107
0.105443 -0.535100 0.188444
-0.408981 -0.628749 -0.097877
-0.271298 -0.011243 -0.045140
-0.758670 0.205643 0.112753
0.401397 -1.121809 -0.059903
-0.553685 -1.170507 0.176387
-0.191983 0.141429 -0.166993
-0.540704 -1.124169 -0.140638
0.254530 -0.008817 0.115692
-0.620059 -0.962049 0.048236
-0.193922 -0.557370 -0.178326
-0.385697 -0.809334 0.125080
-0.591180 -1.143788 0.067583
-0.214068 -0.832067 0.024817
-0.802503 0.177442 -0.170853
0.736593 0.329017 -0.061548
-0.370762 -0.762253 0.131329
0.464222 -0.994685 0.205116
-0.225861 -0.711757 0.150254
0.019475 0.545787 0.175081
0.074371 0.303453 0.141738
-0.518039 -0.896800 -0.128074
0.971876 0.263378 -0.034080
0.347873 -0.421772 -0.023387
0.558743 -1.158534 0.203813
0.840717 0.305467 0.009467
-0.647141 -1.096393 0.010586
0.172911 0.341127 -0.108142
0.348930 -0.931886 0.088244
-0.438394 -1.021090 0.221139
0.433572 -1.147896 -0.080296
0.244822 -0.881864 -0.041648
-0.068482 0.566925 -0.118747
0.547421 -0.849909 0.006230
-0.050820 0.438042 -0.148609
0.767110 0.126467 -0.034458
-0.199904 -0.290634 0.208209
-0.330968 -0.674311 0.154075
0.065531 -0.289575 -0.280057
0.475287 -1.000920 0.223367
0.474110 -1.054079 0.259270
-0.663665 -1.064456 0.070024
0.204754 -0.310726 0.202621
-0.251470 -0.222448 -0.094025
-0.198785 0.293275 0.104807
-0.116775 -0.633991 0.136853
0.091664 -0.607970 -0.089343
-0.169644 -0.302430 0.233375
0.239793 -0.601301 -0.148812
0.791719 0.326172 -0.019669
-0.459969 0.304985 -0.119108
-0.554443 -1.168620 0.125217
0.574607 0.234102 -0.153540
-0.263184 0.317320 0.060175
0.256592 0.159778 -0.152157
-0.428794 0.196606 0.085011
-0.808994 0.245995 -0.184258
-0.538810 -0.865634 -0.091452
-0.516986 -0.971061 0.207136
0.419456 0.153183 0.073221
-0.687167 0.339796 -0.036425
0.259395 0.056895 0.118835
0.297910 0.195018 0.101570
0.027746 0.434888 -0.157605
0.082176 -0.259662 -0.276994
-0.116234 -0.582004 0.167327
-0.097346 -0.179702 -0.255281
0.410032 -1.042679 -0.146821
-0.434181 -0.999409 0.164380
-0.160241 -0.295026 -0.261907
0.113536 -0.679149 0.030273
0.108162 0.425759 -0.112446
-0.431357 -1.031814 -0.156670
0.194899 -0.260725 -0.216841
-0.048880 -0.494570 -0.185150
0.654287 -1.091010 0.031942
-0.142759 -0.102146 0.223105
0.517411 -1.183683 -0.024770
-0.911454 0.148851 -0.138387
-0.238850 -0.391181 0.190841
0.126749 0.089735 -0.198145
0.306890 0.314848 -0.105975
-0.489807 0.207224 0.082414
0.395523 -0.636345 -0.118032
-0.061456 -0.018736 0.237462
0.749926 0.276251 -0.147778
0.099112 0.108660 0.210724
0.219062 -0.456690 -0.206742
-0.964988 0.158643 -0.062133
0.478520 -1.076162 -0.174496
-0.097504 -0.612885 -0.089199
-0.051092 0.309820 0.163056
-0.162612 0.352924 -0.098737
-0.640416 -1.108699 0.047553
0.132182 -0.029915 -0.205398
-0.391070 -1.069244 0.140968
0.140662 -0.112658 -0.208532
0.234456 -0.142866 -0.097973
-0.008583 0.025578 0.240703
-0.202474 0.353343 -0.078660
-0.318512 -0.632616 -0.155500
0.088306 0.059956 0.220445
0.106126 -0.342990 -0.271548
-0.109122 0.569178 0.108193
0.643365 0.175943 -0.134949
-0.195511 -0.392073 -0.229964
-0.333755 -0.406294 -0.063299
0.277332 -0.504235 -0.157680
-0.123362 -0.702421 -0.010145
-0.485076 0.209312 -0.156749
-0.209938 0.334488 0.075198
0.120653 0.571565 0.080213
-0.259785 -0.247061 0.137355
-0.466654 -1.170388 -0.018664
-0.982572 0.211402 -0.005944
0.245728 -0.654545 -0.146531
-0.551993 -1.165276 0.022988
0.087704 0.608236 -0.053147
-0.290265 -0.521431 0.184764
-0.140715 0.406705 0.103186
0.242394 -0.380671 -0.186623
0.030473 -0.007503 0.240961
-0.349180 -0.409588 0.021010
-0.604304 0.193521 0.092926
-0.253109 -0.106491 0.093643
0.031187 -0.227243 0.275150
-0.344860 -1.033655 -0.008566
-0.171722 0.294453 0.110561
0.731717 0.328757 -0.009462
0.031547 -0.138071 0.264868
-0.671669 0.125218 0.003718
0.038313 0.238544 0.165094
-0.607239 0.226526 -0.155405
-0.143276 -0.453923 -0.232265
-0.139238 0.151044 -0.193486
-0.290769 -0.955681 -0.003120
-0.698473 0.132244 0.035705
-0.251346 -0.025768 0.120685
-0.119043 -0.221551 0.246561
0.078680 0.160201 -0.212974
-0.166232 -0.468644 -0.222769
-0.321754 -0.751942 -0.184053
-0.166623 -0.003374 -0.169095
0.412845 -1.026189 -0.149616
-0.081626 -0.444507 0.216699
0.523445 -0.773694 -0.042693
-0.182678 -0.364292 0.233472
0.568229 0.216507 0.094034
0.100539 0.228941 -0.196181
0.382225 -1.089213 -0.065749
-0.697974 0.332213 -0.008264
-0.238897 -0.027240 -0.107528
0.026068 0.261953 -0.188323
0.148669 0.220925 -0.187141
0.587668 -0.955824 0.162788
-0.290189 -0.617574 0.186402
-0.309388 -0.492692 0.157152
-0.450804 -0.655671 0.044156
-0.509113 -1.142597 -0.136187
0.216311 -0.666353 -0.140530
-0.070066 0.531902 -0.147672
0.529824 -1.180670 -0.016164
0.415514 0.238661 -0.150860
-0.466872 -0.670016 -0.069836
-0.620885 -1.031397 -0.093806
-0.535148 -0.955454 0.158438
0.019023 0.632806 -0.095292
-0.226835 -0.462977 0.220152
-0.367496 -0.953220 -0.151040
0.152837 0.416294 0.060530
-0.383442 -0.632106 0.128630
-0.933586 0.208517 0.058935
0.203399 0.271628 -0.159978
0.146079 0.363241 -0.085561
0.488007 -1.181541 0.000912
-0.466671 -0.825096 -0.154693
-0.045941 -0.602679 0.018314
-0.279706 0.274653 -0.143842
0.496759 -1.184184 0.192067
-0.663219 -1.037918 0.067300
-0.190397 -0.036631 0.188832
0.272201 -0.000951 -0.052261
0.286901 -0.933708 -0.097661
0.559161 -0.875672 -0.019710
0.420603 -1.070432 -0.144351
0.740700 0.172402 -0.143788
0.090006 0.374867 -0.107199
-0.098655 -0.153073 -0.247314
-0.572973 0.295646 -0.131547
-0.313193 0.145952 -0.145572
-0.102746 -0.538514 -0.179996
-0.232581 -0.676319 0.175154
0.408187 -0.606392 0.086582
0.459071 0.098645 -0.054401
-0.236691 -0.124801 0.137761
0.476276 0.102590 -0.052696
-0.333708 -0.410382 -0.072124
0.505471 0.354599 -0.033162
-0.701226 0.134258 0.053255
-0.189365 -0.466781 -0.218165
-0.044402 -0.313767 0.265959
-0.087916 -0.219612 0.260829
0.282319 -0.486322 -0.149754
-0.750312 0.321441 0.002146
0.588903 -0.951918 0.140531
-0.041589 0.069707 0.228224
0.451949 -0.965121 -0.166172
-0.782374 0.128998 -0.087751
0.516696 -1.093027 -0.174162
-0.616815 -1.084434 -0.096733
-0.067365 -0.629952 0.036415
0.336213 -0.394942 -0.026784
-0.258949 -0.727044 -0.161082
-0.330268 -1.006530 -0.038332
0.524268 0.115476 0.022434
0.577748 0.189952 0.089922
0.503321 -1.184612 0.002028
-0.353459 -0.987349 -0.118014
0.636083 -0.972125 0.093133
-0.190022 -0.348704 -0.239703
-0.317478 -0.996783 0.007521
-0.456150 -0.967260 -0.166332
0.550642 -0.955689 0.160438
0.181486 -0.679747 0.147896
-0.330001 -0.772882 -0.185654
0.503416 -1.176603 -0.062443
0.628718 -0.968302 0.101354
0.459366 -0.672820 -0.083559
-0.538932 0.279083 0.061705
-0.262275 -0.112709 0.064578
0.075466 -0.637680 -0.020619
0.468705 -0.682490 0.026343
0.111679 0.393206 0.152083
0.115798 -0.502807 0.202021
0.544023 -0.875197 0.033538
0.248639 -0.264886 -0.145546
-0.385163 -0.815228 -0.176420
-0.255360 -0.129573 -0.032341
-0.561301 0.178759 -0.141683
0.250101 -0.447997 0.198812
0.066218 -0.037595 -0.237360
0.230262 -0.199805 -0.120830
-0.330633 0.074983 -0.000866
0.826628 0.297369 0.031940
-0.391035 -1.046642 0.160155
-0.319286 -0.347990 -0.015001
0.279447 -0.257838 -0.041290
0.183765 0.047250 0.178485
-0.573464 -1.123535 0.235608
-0.318117 0.229283 0.099506
0.181140 -0.317929 0.226344
-0.456753 -1.171228 0.042849
0.306196 -0.976420 -0.012367
-0.007437 0.099759 -0.217789
0.270313 0.316363 0.057170
0.458646 -0.658043 -0.067123
-0.541852 -1.124348 0.247822
0.443101 -0.629478 0.009558
-0.125849 -0.425749 0.226000
-0.139621 -0.630375 0.153137
0.601883 0.188980 0.090238
0.528341 0.309617 0.045014
-0.335993 0.328790 0.029451
0.288799 0.174856 0.102416
0.425721 -0.883666 0.111709
0.926371 0.155574 -0.125780
-0.045321 0.091844 0.224466
0.287809 -0.681481 -0.163989
-0.210453 -0.237751 -0.181092
-0.268130 -0.189733 -0.012923
0.121107 0.395292 -0.080531
0.252219 -0.361440 -0.172722
-0.545165 -1.071907 -0.164240
-0.466071 0.310948 0.048822
0.399426 -0.764179 -0.170433
-0.158818 -0.727825 -0.071546
0.157576 -0.698474 0.114533
-0.480170 0.273763 -0.145027
0.166430 -0.061141 -0.175360
0.333156 -0.724282 -0.176155
-0.306340 -0.482154 -0.124069
-0.188511 -0.542192 0.202778
-0.116242 0.110822 0.202775
-0.561807 -1.002884 0.233404
0.112192 0.406823 0.152689
-0.203057 -0.582287 0.194895
0.109140 -0.555410 -0.167306
0.137567 -0.132069 -0.224591
0.106452 -0.382882 0.251433
0.639915 0.251972 0.076165
-0.307161 -0.395049 0.117372
0.241417 0.076572 0.137572
0.240147 0.319758 0.070368
0.380681 -0.867262 -0.177108
0.418402 -0.677576 -0.143013
-0.102418 0.572176 -0.088485
-0.087494 0.147414 -0.216069
-0.446730 0.165757 0.077375
0.241928 -0.876738 -0.048268
0.116938 -0.668566 -0.066541
0.249715 -0.665927 0.178978
0.120069 -0.137019 0.238059
0.081396 0.568306 -0.107763
0.167107 -0.089074 0.210120
-0.212538 -0.363377 -0.220785
-0.657572 -1.085736 0.084505
-0.274318 -0.462572 -0.156886
0.271516 -0.209864 -0.010143
0.191714 -0.111101 -0.154660
-0.679935 0.126423 -0.067025
-0.102675 -0.140024 0.246539
-0.801514 0.130003 -0.044657
-0.080731 0.347792 0.181429
0.304269 -0.867809 -0.142086
0.321146 0.146261 -0.145484
0.303552 -0.480132 0.158572
0.209551 -0.292534 0.198357
-0.403555 -1.115145 0.088494
-0.253817 -0.695252 0.167866
0.257902 0.294721 -0.131741
-0.394043 -1.056880 0.169554
-0.651599 -1.012126 0.037405
-0.134074 0.559790 0.064154
0.504236 0.215138 -0.155968
0.083876 -0.654709 -0.005308
0.264565 -0.452034 -0.167504
0.043364 -0.400106 0.251403
-0.287921 0.100683 0.068683
0.400645 -0.576991 -0.048579
0.597739 -1.141049 0.088025
-0.636448 0.171499 -0.131843
-0.636774 -0.972368 0.091016
-0.341080 0.319497 -0.101437
-0.260988 -0.257264 -0.113807
-0.061982 0.623904 0.086473
-0.621213 0.162972 -0.126458
0.144986 0.011198 -0.188637
0.040207 0.179418 -0.207841
-0.164803 -0.745989 0.065337
0.268654 0.083277 0.098281
0.643692 0.290581 -0.133394
0.031064 -0.516561 -0.137603
0.526220 0.300316 0.050308
-0.137078 0.052033 -0.192032
0.949904 0.244515 0.038421
-0.210182 -0.808812 0.048681
0.059331 0.229347 0.168594
-0.311896 0.195714 -0.157832
-0.362089 -0.782032 -0.179384
0.245144 -0.123324 -0.074739
-0.605138 -1.019136 0.211421
0.378243 0.341575 -0.033100
-0.179234 -0.786907 0.022478
0.759251 0.146571 -0.123368
0.651151 -1.053207 0.007190
0.645943 0.116974 -0.052594
0.373058 -0.674025 0.140494
0.538816 -1.148881 0.226142
-0.321028 -0.343512 0.003338
-0.579980 -1.096053 0.252948
0.125578 0.175778 0.182733
0.422977 -0.609957 0.027942
0.011517 0.505346 -0.163550
-0.263612 -0.135565 0.001189
-0.360938 -0.463196 -0.043478
0.025458 0.017419 0.238528
0.677143 0.225086 -0.155243
0.640513 0.241349 -0.151293
0.259020 -0.246517 -0.105041
0.875492 0.206788 -0.197728
0.813827 0.277252 0.089109
-0.399224 -0.599749 0.090505
-0.560155 -1.163296 0.191370
-0.381563 -0.878588 0.118082
-0.880858 0.141730 -0.140298
-0.663127 0.146712 0.068249
-0.406534 0.118580 0.045192
-0.379703 -0.498286 0.011968
0.684266 0.315413 -0.107910
0.283233 0.099934 0.075446
-0.240625 -0.690196 -0.152293
0.692065 0.260671 0.074492
0.269482 -0.674578 0.176785
-0.032125 -0.502853 -0.159656
0.522066 -0.768820 -0.028983
-0.751661 0.123992 0.000579
0.317550 0.072332 -0.080068
0.388648 -0.949449 0.095824
-0.225271 -0.783817 -0.126715
-0.395830 -0.815989 0.123521
0.738794 0.166460 -0.134470
0.204529 -0.583649 0.194769
0.082600 -0.585642 -0.108363
-0.461409 0.098734 -0.048642
0.070895 -0.588394 0.137601
0.148505 -0.299041 -0.264216
0.075712 -0.300407 -0.279017
-0.166836 -0.708258 0.112755
0.322917 0.311314 -0.110492
-0.457096 -0.669246 0.042774
0.295903 -0.405319 0.141267
-0.480429 -0.751274 0.063492
0.453608 -1.150102 -0.119166
0.025929 0.208721 -0.202959
-0.153059 -0.338618 0.242270
-0.891020 0.273889 0.066682
-0.336769 0.319157 0.044116
-0.274985 -0.760922 -0.164721
0.194916 -0.344289 0.214940
-0.277488 -0.499127 0.189580
0.603240 -1.137153 0.164067
-0.560927 -0.910693 -0.086038
-0.375745 -1.088395 -0.013078
0.559997 -0.883718 0.011324
0.491326 -0.791910 -0.118966
0.187547 0.063776 0.173518
0.126890 -0.677405 0.093582
0.388514 -1.007989 0.098060
0.242739 -0.747684 -0.145937
-0.013338 -0.574559 -0.020795
0.436919 -0.671214 -0.112804
-0.514196 -1.176465 -0.086339
-0.856983 0.291211 -0.148617
-0.032430 -0.074680 0.252266
0.245715 -0.174806 -0.075703
-0.243217 -0.350487 -0.182437
-0.351627 -0.474688 -0.079390
0.236979 -0.870238 0.023611
0.392146 -1.117354 0.043293
-0.536587 -1.152514 0.223709
0.275265 0.022499 0.068037
-0.230211 -0.003823 -0.121151
-0.529623 -0.791555 -0.042143
-0.240438 -0.596150 0.195101
-0.383919 -1.048601 0.102121
0.140093 0.034451 0.205781
-0.547984 0.328000 0.022503
0.542164 -0.833868 0.001858
0.162700 -0.761482 -0.056234
-0.287990 -0.435203 0.158603
-0.558356 -1.160410 -0.019910
-0.392387 -0.575123 0.079639
0.512409 0.289945 -0.136666
-0.302040 -0.408257 -0.121032
-0.742406 0.184895 -0.156858
0.544989 -0.841984 0.003616
-0.190609 -0.281592 0.217940
-0.341098 -0.870647 -0.165482
-0.120110 -0.118459 0.235706
0.272888 -0.854786 0.084642
-0.124013 -0.631248 0.142959
-0.802037 0.273735 0.088652
0.215621 -0.724829 -0.132591
0.575741 -1.147910 -0.041063
0.826213 0.128864 0.062548
0.213131 -0.840966 -0.011902
0.507594 -1.118471 -0.156453
0.688412 0.339587 -0.036739
0.284524 -0.364949 0.138821
0.285607 0.004638 0.048118
-0.244852 -0.037110 0.137028
0.189361 -0.251973 -0.218965
-0.684916 0.334763 -0.010550
0.058475 0.097793 -0.223789
-0.239539 -0.721379 -0.149295
0.396734 -0.645486 0.121255
-0.104808 -0.317332 -0.272702
-0.331636 -0.501195 -0.101377
-0.746666 0.135076 -0.098681
0.613425 -0.958746 0.099795
-0.057647 0.518597 -0.159983
0.299075 -0.571577 0.182626
0.308442 -0.840026 0.109955
0.764576 0.262258 0.087575
-0.199055 -0.180413 -0.161623
-0.317549 -0.908540 -0.130877
0.149407 -0.687863 0.117811
-0.272571 -0.769741 0.123100
0.817262 0.318223 -0.008486
-0.181158 -0.507411 0.210384
-0.217885 -0.843542 -0.040250
-0.499108 0.335102 -0.086196
0.561979 0.294629 -0.132456
0.222173 0.273108 -0.155152
0.386862 -0.971869 -0.154864
-0.518292 -0.783700 0.008669
-0.248047 -0.890384 -0.017869
-0.453938 -0.898581 -0.166682
-0.867370 0.312342 -0.060357
0.545614 -0.836172 -0.015642
0.048888 -0.562417 -0.102610
-0.375974 0.277997 0.087806
-0.168204 -0.168075 0.219543
0.268716 -0.161243 0.073926
0.784987 0.133306 -0.115630
0.144123 0.303435 -0.149935
0.202379 -0.375817 -0.228556
-0.408787 -0.942699 -0.164632
-0.906898 0.305874 -0.045705
0.316973 -0.359627 0.068893
-0.245061 -0.697501 0.167117
0.146281 -0.643685 0.149371
0.226593 -0.110109 0.171873
-0.334263 -0.416072 -0.081234
-0.352610 -0.806736 -0.182827
0.397510 -0.891525 -0.174270
-0.860645 0.135437 -0.025067
0.298034 -0.333822 -0.093966
-0.395090 -0.861750 -0.177017
-0.308812 -0.985865 0.016473
0.157030 -0.505412 0.207371
0.462716 -1.157671 -0.092020
0.251587 -0.236292 -0.111505
-0.246776 -0.204492 0.144546
-0.264868 0.229308 0.106597
-0.336499 -0.389237 -0.013403
0.385131 -0.512006 -0.005364
-0.566318 -1.122673 0.239266
0.958317 0.157288 -0.025333
0.309468 0.151021 0.094329
-0.042840 0.352401 -0.131753
0.263528 -0.491318 -0.172949
0.340251 0.338422 0.015709
0.606255 -1.132954 0.032249
0.524167 -0.975893 -0.146793
-0.239323 -0.462698 -0.194339
0.421654 -0.610720 0.035943
-0.584541 -0.948038 0.118186
0.719030 0.200703 -0.160642
-0.204796 -0.591213 0.192921
0.925249 0.267268 -0.145662
0.262433 -0.511878 0.201726
-0.162608 0.236136 0.144134
-0.481121 -0.960237 -0.162175
0.581905 -1.103703 -0.132134
0.162829 0.461555 -0.011775
-0.173864 -0.720623 0.107143
-0.495917 0.186831 0.081538
-0.342323 -0.654484 0.156759
0.242757 0.300730 -0.129933
0.315681 0.129846 -0.139514
0.478829 -1.181552 0.192897
-0.082115 0.267499 0.143499
0.610915 0.114351 -0.048077
0.158070 -0.497306 0.209544
0.081409 0.625227 0.058642
-0.275543 -0.588847 0.194105
-0.278590 -0.909560 -0.112260
0.499806 -0.771456 -0.090834
0.087076 -0.182313 -0.258927
0.222393 0.000920 -0.126199
-0.357465 -0.649889 -0.155582
-0.614737 -0.964073 0.151852
0.283017 -0.253386 -0.007135
0.386592 0.285004 0.081132
0.378574 -0.753432 -0.174229
-0.524981 -1.077569 -0.176111
-0.323024 -0.345012 0.010418
-0.386624 -0.651548 0.133895
-0.269815 0.081783 0.094508
-0.337933 -1.015433 -0.050108
0.283258 0.071426 0.068295
0.007980 0.611924 0.146836
-0.358990 -0.440860 0.039292
-0.425094 -0.653258 -0.108024
0.317528 -0.457966 -0.110827
-0.186522 -0.424854 0.231756
0.157570 0.136938 -0.180897
0.339599 -0.385792 0.009736
0.301023 -0.875914 0.089773
0.463918 -0.664185 0.018010
-0.132658 -0.505796 -0.206618
0.325425 -0.416152 -0.099075
0.299705 -0.959683 -0.049561
-0.162401 0.478898 0.029730
0.264779 -0.177350 0.091677
0.480220 -0.859421 -0.151554
-0.089026 0.417956 -0.121835
-0.226564 0.001169 0.160031
-0.233628 -0.165799 0.147536
-0.044740 -0.173056 0.269937
-0.111584 -0.073802 0.234062
0.154631 -0.635015 -0.120976
0.905528 0.217968 -0.174686
0.362371 -0.776835 -0.179022
-0.008374 -0.238285 -0.278225
0.213779 0.082283 -0.140593
0.303687 -0.470683 -0.125503
0.249446 -0.012115 -0.095420
0.597895 -0.949723 0.106069
-0.181982 0.153593 0.162595
-0.190563 -0.367877 -0.236467
-0.404796 -1.115417 0.073105
0.458516 -1.046763 -0.167778
0.294566 -0.441406 -0.131492
-0.720242 0.159241 -0.110994
-0.309548 -0.540792 -0.126677
0.244934 -0.250787 -0.141792
-0.051939 0.619441 0.107483
0.096155 0.567633 -0.097145
0.305377 -0.404201 0.128182
0.249851 -0.280086 -0.153418
0.082222 -0.085924 -0.234800
-0.347122 -0.418427 -0.020260
0.157443 0.172495 0.169745
0.083065 -0.478368 0.203353
-0.206329 -0.459381 0.225478
0.460032 0.100914 -0.079484
-0.411823 -0.908470 -0.172673
-0.359300 -0.496277 0.079823
0.373624 -0.579007 -0.074564
0.136885 -0.647034 -0.092427
0.202719 -0.645152 0.179166
0.048012 -0.088888 -0.246270
0.119438 0.249254 0.146880
0.503059 -0.865820 -0.133998
0.170376 -0.178527 -0.203135
-0.098381 -0.666126 -0.046038
-0.264709 -0.144734 0.000259
0.283616 0.221139 -0.153227
0.405708 -0.785446 -0.170337
-0.507465 -0.733494 -0.020536
0.362370 -0.446797 0.008519
-0.134187 0.547430 -0.073930
0.492158 -0.747462 0.038102
0.753879 0.124925 -0.059675
-0.548689 0.117257 0.027217
-0.211509 0.042879 0.162385
-0.419444 -0.588423 -0.028933
0.147164 -0.727889 -0.002410
0.053106 -0.083539 -0.244285
-0.275627 -0.388020 -0.147371
0.125435 0.187066 -0.098937
-0.157494 -0.408322 -0.127870
-0.265863 -0.563080 -0.114623
-0.063028 0.482256 0.020253
-0.336781 0.194157 -0.100319
0.750700 0.275013 -0.107757
-0.450988 -0.804756 -0.008689
0.243586 -0.560444 0.157339
-0.545120 0.245210 -0.126177
0.794430 0.261058 -0.107199
0.056076 0.184530 0.098102
0.125581 -0.552488 0.126661
0.665289 0.295852 -0.004376
-0.114267 -0.327720 -0.194575
0.156197 -0.327038 -0.234750
0.236132 -0.330250 -0.037349
-0.133170 -0.563057 0.023404
0.038659 0.513382 -0.119291
-0.269160 -0.231355 0.061599
-0.274952 -0.816680 0.017146
0.291399 0.099118 -0.099030
0.063706 -0.470709 0.117768
0.127024 0.041963 0.121412
0.796528 0.171049 0.071597
-0.565313 -1.019831 -0.125422
-0.055527 -0.185836 0.227653
-0.457892 0.307101 -0.048728
-0.587483 -1.113806 0.090479
0.465954 -0.995847 -0.108369
0.169815 0.255776 -0.119744
-0.199830 -0.436690 0.150493
0.124130 -0.369570 0.220278
0.230188 0.311216 -0.008482
-0.242266 -0.809845 0.022300
-0.228422 0.087738 0.097447
-0.594766 0.209345 -0.139010
0.059866 0.267404 0.124044
-0.720143 0.161363 0.053471
0.330433 -0.794326 -0.172020
0.514067 -0.972307 0.126681
0.192460 -0.007056 -0.071908
0.464476 -1.008831 -0.134754
-0.513056 -1.145614 -0.098876
0.214699 -0.258822 -0.147036
0.168688 -0.368613 0.222218
-0.014659 0.470349 -0.132066
0.577032 0.148303 -0.087050
0.632376 0.235043 0.028772
0.410210 0.310462 -0.059193
-0.307806 -0.371486 0.034206
0.371544 0.306252 -0.026947
-0.620463 -0.991227 0.076088
-0.221456 -0.067800 0.088307
-0.232254 -0.191450 0.091010
-0.490608 -0.999579 0.172000
-0.676182 0.184774 0.053287
-0.342818 -0.710774 0.115362
0.177016 0.157103 -0.127307
0.289027 -0.540769 0.149824
-0.175808 -0.162428 0.171153
-0.004677 -0.133967 -0.234650
0.191196 -0.742975 -0.012069
0.077792 0.500019 0.129654
-0.210078 -0.573814 0.177053
-0.532428 0.333503 -0.028489
0.217787 0.318692 0.045864
0.730674 0.150823 -0.018382
-0.118358 -0.134951 -0.161934
0.169553 0.336405 0.004206
0.190596 0.339087 0.014229
-0.535627 0.191644 0.066596
0.392975 -0.782785 0.099455
0.339587 -0.919814 0.052922
-0.037731 -0.293968 0.234472
0.127818 -0.171619 0.196151
-0.462352 0.114436 -0.013355
-0.530503 -0.868063 0.020152
-0.219724 -0.219037 0.157332
0.198035 -0.560977 0.172270
0.208043 -0.693901 -0.099047
-0.027762 0.214413 0.144429
-0.225898 0.059997 0.050318
-0.232288 0.069028 0.114670
0.894474 0.175153 0.062982
-0.316950 -0.599246 0.142959
-0.099135 0.515444 0.126185
-0.280463 -0.390306 0.111848
-0.233257 -0.357572 0.159368
-0.753874 0.167088 -0.109528
-0.581389 -1.140069 0.133483
0.486082 -0.958815 -0.136294
0.288431 0.081772 0.039862
-0.003497 -0.320992 -0.159602
0.202211 -0.766518 0.034096
0.644176 0.299767 -0.096693
-0.175710 -0.230890 0.107481
0.002234 0.107699 -0.134077
0.133677 0.416980 0.049243
0.155460 -0.281955 -0.251668
-0.775979 0.299505 -0.070044
-0.056624 -0.043202 -0.213525
-0.220740 0.016747 0.136190
-0.095265 -0.613450 -0.034068
0.627395 -1.102181 0.109375
0.283884 -0.459620 -0.101540
0.330734 0.100055 -0.084018
-0.401044 -0.705936 0.090251
-0.256391 -0.267124 -0.072699
-0.159807 -0.723122 0.065968
-0.409370 -0.682366 0.068370
-0.252631 -0.546851 0.169675
-0.401976 -1.079664 -0.052037
0.338671 -0.872965 0.064384
-0.299950 -0.803119 0.078170
0.430601 -0.703795 -0.080625
0.308217 -0.799667 -0.150417
-0.363434 -0.985036 -0.102516
-0.236284 -0.274300 0.123126
-0.189899 -0.185709 -0.113757
0.472048 -0.974959 -0.146666
-0.932023 0.153882 -0.067957
-0.266685 -0.263169 -0.074137
0.371511 -0.544678 -0.036208
0.434520 -1.127554 0.062876
-0.245865 -0.519868 0.185933
-0.512863 0.208176 -0.140133
-0.264586 0.076931 0.065301
0.630030 -1.003037 0.028268
0.320501 0.312135 0.016952
-0.272816 0.191407 0.073723
-0.494866 -0.804338 0.018833
-0.803308 0.213151 0.097348
0.570979 -1.074945 0.238202
0.511686 -1.100664 -0.043024
-0.106969 -0.145381 -0.221028
0.045642 0.475825 -0.138131
0.424612 -1.018543 0.119545
-0.187628 -0.450514 -0.206287
0.063014 -0.432140 -0.223701
-0.159322 -0.500961 0.183524
-0.094296 0.547093 0.039382
-0.187975 0.332726 0.045459
0.207283 -0.801721 -0.045458
0.607224 -0.979943 0.148921
-0.640103 -0.989570 0.085118
-0.523290 -0.883839 0.029146
-0.329217 0.094160 0.019791
-0.075940 0.352930 -0.073649
0.148367 -0.285167 -0.179969
-0.050906 0.437367 -0.114677
-0.006114 0.602712 -0.102893
-0.288115 -0.492680 -0.118332
-0.833226 0.276694 -0.112164
-0.058088 0.036142 0.205019
-0.298823 -0.919839 -0.076445
-0.059852 -0.249182 0.251560
-0.509404 -0.800234 -0.048588
-0.359078 -0.894349 -0.129214
-0.466700 -0.807946 0.059708
0.405105 -0.976827 0.050551
-0.102107 -0.398573 -0.225395
0.099027 -0.439920 0.159136
0.138877 -0.269708 0.221083
0.335172 0.153656 -0.126390
0.193984 0.021229 0.158698
-0.093314 -0.552979 0.145740
-0.332992 0.181030 -0.138261
-0.446355 -1.089564 0.020203
-0.276164 0.315562 -0.040385
