ply
format ascii 1.0
comment ply file 
element vertex 1672
property float x
property float y
property float z
end_header
-0.050678 0.200632 0.172979
-0.195747 -0.115786 0.139844
-0.221381 0.061153 -0.045111
-0.063348 0.543649 0.050637
0.150830 0.437069 0.034530
0.084741 -0.104019 0.237938
0.256066 0.320129 -0.003395
0.686907 0.283490 -0.039690
0.269835 -0.708356 0.037622
-0.045688 -0.339744 0.251629
0.216121 -0.193060 -0.103153
0.127208 0.307872 -0.127846
-0.503549 0.207866 0.020661
-0.214215 0.035049 0.131532
0.288228 -0.472467 -0.110608
0.611142 -0.987321 -0.013584
-0.070145 0.545757 -0.118339
-0.043660 0.128779 -0.181924
-0.172956 -0.303989 0.133847
0.016696 0.342071 0.167216
-0.470397 -1.048174 -0.135193
0.234382 -0.137347 -0.072108
0.059177 -0.512654 0.102780
0.125651 -0.437902 0.166986
-0.382134 0.129750 -0.065427
0.042423 0.539682 -0.101456
-0.762840 0.160904 0.051514
0.553635 -1.004166 0.092597
0.793712 0.177795 -0.153151
0.072618 0.023541 -0.203299
0.224684 -0.830953 -0.060263
0.486188 -1.103007 -0.127318
0.298169 0.180182 -0.110644
-0.937355 0.146589 -0.064193
-0.580611 -1.116222 -0.052318
0.029941 -0.392897 0.210270
0.591620 0.233959 0.067685
-0.263051 -0.053078 0.048092
-0.929883 0.216178 0.052682
-0.156685 -0.351356 0.229125
0.107097 -0.277648 -0.221781
-0.135387 -0.264654 0.210264
0.228034 -0.296292 -0.097674
-0.031218 0.254423 -0.181554
0.073067 0.086198 -0.214062
-0.228718 -0.084688 0.137450
-0.613369 -0.995914 -0.003306
-0.683447 0.150691 -0.022997
0.322335 0.307169 0.039922
0.012848 0.129412 0.210495
0.150843 0.207290 -0.150723
-0.813499 0.208772 0.092155
-0.406623 -1.042649 0.077419
-0.524338 0.190777 0.019960
0.437140 0.116662 0.015340
-0.580461 -1.038657 0.197319
-0.494916 0.260655 -0.136570
-0.463948 -0.822097 0.043842
-0.567568 -0.992435 -0.129275
-0.683311 0.260283 0.052585
0.556857 -0.960080 0.042689
-0.671151 0.232023 0.054734
-0.289517 -0.549275 -0.130556
0.160836 -0.516313 0.189157
-0.285449 0.166310 0.082792
-0.066041 -0.397394 0.233920
-0.256768 0.171350 -0.112670
0.518076 -1.012470 -0.131044
0.018501 0.356657 0.026591
0.217694 -0.189889 0.165195
0.091507 -0.435071 0.169604
-0.290518 -0.492553 -0.105233
0.250466 -0.796049 -0.123941
-0.030040 -0.415445 -0.181933
-0.729541 0.189461 -0.136169
-0.223252 -0.008500 0.123056
0.169270 0.351618 -0.001773
0.200931 0.322901 -0.078361
0.291204 0.083832 0.027947
0.413573 -1.045586 -0.011915
-0.591596 0.235439 0.068264
-0.537523 -1.017604 0.166249
0.255317 0.126226 0.107275
0.373743 0.248603 -0.093195
0.636487 -1.044586 0.149139
-0.419168 -1.060124 0.108748
-0.178642 -0.646686 0.149492
-0.287266 -0.662569 0.144489
-0.051848 0.105875 -0.191463
0.536722 0.253226 -0.116979
-0.092560 -0.199116 0.237001
0.554154 0.318732 -0.061809
-0.054437 -0.542501 0.099547
0.268230 -0.850184 0.060286
0.671237 0.147429 0.021189
0.430029 -0.798783 -0.024177
-0.520499 -1.087329 0.206380
-0.174239 0.341120 0.071847
0.599946 -0.985837 0.172401
-0.240218 -0.282705 0.109263
0.439570 -0.655745 -0.019878
-0.053040 -0.008284 -0.131436
0.251296 -0.132949 0.007260
-0.058527 -0.312899 -0.235491
0.144230 -0.102064 -0.184266
-0.467720 -0.905730 0.069971
-0.188907 -0.505600 -0.094609
-0.068603 -0.359613 0.188870
-0.220750 -0.703293 0.131519
-0.545333 -1.142794 0.180375
0.210414 -0.614690 -0.103354
0.214695 -0.735566 -0.040316
-0.155580 -0.460393 0.189321
0.258712 -0.714114 -0.116518
-0.145513 0.227051 -0.151271
-0.816054 0.170180 -0.154652
-0.517644 -0.976659 0.107513
0.047717 -0.576247 -0.026762
-0.314706 -0.723056 -0.130515
0.014681 0.040746 0.210547
0.932593 0.187931 -0.003781
0.301668 -0.465477 0.014489
0.209622 -0.711699 -0.042908
0.293123 -0.917076 -0.036114
-0.663402 0.306763 -0.056810
0.615148 0.286353 -0.079470
-0.261736 -0.780701 -0.066141
-0.355566 -0.663214 0.133180
-0.197570 0.290108 -0.073049
-0.743454 0.324642 -0.027057
-0.249464 0.077375 0.118931
0.537826 -1.141736 0.093106
-0.016713 -0.519330 0.078999
0.522906 -1.025898 -0.070967
0.274214 -0.277779 0.075608
-0.295962 -0.491544 0.069296
0.040968 -0.263851 0.250920
-0.570450 -1.043828 -0.103213
-0.259782 0.035522 0.021091
-0.229513 -0.395287 -0.147202
0.287266 -0.293118 0.031296
0.342044 -0.885467 -0.115358
0.017345 -0.501832 -0.112535
0.486218 0.336163 -0.069395
0.301523 -0.693341 0.105205
0.170051 -0.586926 0.017082
0.190576 -0.558983 0.140463
-0.371291 -0.568619 0.009728
-0.348525 -0.497582 0.051710
0.132239 0.511207 -0.077403
0.058200 -0.386807 -0.229423
-0.293860 0.081723 0.011603
-0.169070 -0.412990 0.195720
0.325087 -0.488604 0.073851
0.191331 0.210420 0.132684
0.130810 -0.109860 -0.173437
-0.300812 -0.842240 -0.123780
-0.374217 -0.631508 0.068951
0.963777 0.216143 -0.081045
-0.808070 0.142047 -0.018845
0.144077 0.272984 0.102901
0.174029 -0.531092 0.189385
0.609406 0.295223 0.002870
-0.508106 0.175351 -0.126532
-0.185437 -0.387056 -0.221884
-0.469553 0.231145 -0.118698
-0.044355 -0.256316 0.225425
-0.493987 -1.069005 0.214294
-0.127572 -0.591295 0.009252
0.173472 -0.290763 -0.227865
-0.256529 -0.497146 -0.130301
0.577181 -1.050954 0.222316
0.191298 0.324718 0.021747
-0.225859 -0.198472 0.142162
0.443789 -0.731317 -0.092705
0.093542 -0.372388 -0.029011
-0.407952 -0.866476 -0.156244
0.181039 0.213940 -0.145219
-0.120591 -0.257236 -0.252759
0.450301 -1.097975 -0.132472
-0.105556 0.257802 -0.174488
-0.248905 -0.187854 0.049674
0.387644 -0.588882 0.073727
-0.017792 -0.231126 0.153867
0.075240 -0.500150 -0.028975
-0.471657 -1.160802 -0.002498
-0.222558 -0.012622 0.133421
0.100664 -0.043864 -0.023968
0.001153 -0.455535 -0.148223
-0.064418 0.564461 -0.051672
0.198466 -0.062815 0.156747
0.209814 -0.606669 0.176614
0.105639 -0.521182 0.169409
0.258834 0.039858 -0.036437
0.370025 -0.635188 0.127839
0.028865 0.500788 0.156544
0.019221 0.570036 -0.116310
0.715967 0.240650 -0.098860
0.226114 -0.100947 0.053267
0.259022 -0.575950 0.175577
0.150639 -0.255746 0.221816
-0.036069 -0.020785 -0.103481
-0.322916 0.158242 0.071357
-0.627586 0.127395 -0.035534
-0.608469 -1.017946 0.043322
-0.489408 0.132314 -0.089199
0.145240 -0.469650 0.170548
0.017901 0.076393 -0.044329
-0.191536 -0.225160 0.147825
0.517951 -1.162440 -0.095007
0.338462 -0.529442 0.092110
-0.123920 -0.002792 -0.177795
-0.121515 0.480544 0.077701
0.214231 -0.686737 0.093215
-0.383118 -1.059823 0.026057
-0.559963 0.138340 -0.094674
0.430494 -0.803052 0.065675
-0.408057 -0.741842 0.087226
-0.412325 0.141769 0.002648
0.421642 -0.739451 0.100174
-0.499450 -0.852576 -0.071461
0.059955 0.387401 0.114497
-0.768321 0.259822 -0.043474
-0.236187 -0.355981 0.169162
0.340492 0.204758 -0.104073
0.198412 -0.191963 -0.147782
0.279904 -0.887179 -0.034314
0.254662 0.200754 0.092369
-0.093956 0.484087 0.056946
-0.125249 -0.653578 0.114531
-0.112245 -0.489646 -0.141150
0.741186 0.281698 0.022446
-0.570932 -0.999888 -0.034413
-0.448157 -1.108915 0.163258
0.007717 -0.493099 -0.099075
-0.693914 0.158052 0.060245
0.693992 0.270978 -0.126011
0.350352 0.204916 0.062262
0.118146 -0.043166 -0.166760
-0.162441 -0.107109 0.172457
-0.521502 -1.163855 0.046891
0.100396 -0.524330 -0.039143
0.068835 0.570397 -0.007707
0.592608 0.229290 -0.064674
-0.223037 0.340574 0.021885
0.030506 -0.000183 0.136514
0.270487 -0.209133 0.073732
-0.057994 0.331915 -0.096715
0.535103 -1.073443 -0.109363
0.377178 -0.856577 0.066429
0.390597 -0.818448 -0.161417
0.198563 -0.585037 -0.138181
-0.213786 -0.189327 -0.000003
-0.733432 0.155163 -0.069192
-0.035357 0.569194 -0.063475
0.431504 -1.027860 0.057637
0.086082 -0.275414 -0.191223
-0.192257 -0.121924 0.070736
-0.057813 -0.579896 0.102536
0.563222 -1.018220 -0.059243
0.442447 0.305668 -0.066371
0.091878 0.084353 0.087429
0.269890 -0.754553 -0.130519
0.364592 -0.995942 -0.055462
0.212290 -0.727073 0.085470
-0.122457 -0.231039 -0.248891
0.322640 -0.889021 0.082877
0.285967 -0.433739 0.132523
0.327737 -0.772279 0.106437
0.334049 -0.838196 -0.140995
-0.032962 0.517147 0.172714
0.091547 -0.071929 0.181890
0.036887 -0.363486 0.244254
-0.335229 -0.978255 -0.011676
0.306655 -0.469926 0.054869
0.004195 -0.392507 0.244520
0.497688 0.175728 -0.108305
-0.779078 0.240445 -0.015737
-0.520876 0.190183 -0.010815
0.117340 -0.151437 -0.200056
-0.705897 0.189505 -0.103013
-0.338080 0.213481 -0.141961
0.033060 -0.504703 -0.136931
0.140226 -0.204336 -0.172618
0.512730 0.208901 -0.119451
0.102894 0.032552 -0.189429
0.004727 -0.339978 -0.243305
-0.493739 -1.126267 -0.106599
-0.510339 0.305392 -0.022486
0.437831 -1.115797 0.180544
0.436981 -1.018450 0.023729
0.063762 -0.546448 -0.115790
-0.419418 -0.670904 0.062679
0.408498 -0.775289 -0.132370
-0.120605 -0.592826 -0.052902
-0.272203 0.336569 -0.011514
0.329145 0.319443 0.021586
-0.445095 -0.724927 -0.125668
-0.370958 -0.641690 0.140307
0.098696 0.004050 -0.204044
-0.394007 0.128774 0.010962
0.337626 0.323138 -0.059446
0.523190 -1.142153 -0.097492
0.170494 -0.441510 -0.189678
0.648616 0.323291 -0.069416
0.171072 -0.033608 0.094217
-0.259517 -0.018556 0.008813
-0.416302 -0.615344 -0.046859
-0.547163 -0.911843 -0.062077
-0.857488 0.255718 0.064797
-0.102926 0.400109 0.108310
-0.208165 -0.324596 0.183230
-0.109565 -0.242733 -0.247127
-0.212163 0.118786 0.089663
-0.179705 -0.129724 -0.043223
-0.384315 -0.965405 -0.120576
-0.597432 -1.121158 -0.003284
0.001573 -0.085549 0.250756
-0.164584 -0.395377 -0.168564
0.573374 -0.951765 -0.036957
-0.127940 0.140306 -0.167626
-0.267284 -0.829524 -0.058025
-0.196629 -0.551529 -0.125426
-0.182708 -0.690862 0.009320
0.145080 0.228673 0.137680
-0.430632 -0.856711 0.074124
0.296375 0.313040 -0.045109
-0.335400 -0.507854 0.096840
-0.029963 -0.459178 0.194089
0.699560 0.275993 0.034804
0.567999 0.236670 0.057117
0.332775 -0.529162 -0.089267
-0.080975 0.548687 0.051945
0.015179 0.606577 -0.018340
0.267956 -0.329240 -0.051978
-0.548925 -0.983895 -0.055662
-0.244484 -0.101103 0.015458
0.351458 0.125569 -0.048522
0.171006 -0.732570 -0.024230
-0.264307 -0.614018 -0.132463
-0.151085 0.299669 -0.093973
-0.089862 -0.615132 0.089707
0.523477 -0.954358 0.093544
-0.304525 -0.942117 0.033501
0.215884 -0.357578 0.095405
0.259410 -0.650475 -0.076571
0.460982 0.292903 0.036666
0.350848 -0.879447 0.034462
-0.468696 -1.030156 0.037791
0.164203 0.321583 -0.088206
-0.100012 0.305838 0.083189
-0.826560 0.292951 -0.084387
0.349159 -0.861375 0.063194
0.275225 -0.371381 0.093540
-0.618793 -1.018057 0.027270
0.462511 -0.770509 -0.064803
0.238468 -0.825083 0.047032
0.550601 -1.027861 -0.111485
0.135868 0.435551 -0.062899
-0.690876 0.292613 -0.030056
0.102761 -0.427866 0.143116
-0.359855 -1.036889 0.017850
0.245196 -0.257063 0.016592
-0.525800 -1.151272 0.160893
-0.953537 0.189926 -0.084371
0.892904 0.157376 0.007644
-0.478603 0.157802 -0.013236
-0.281091 0.014290 0.018591
0.181495 0.166307 0.123798
-0.727208 0.245869 0.069384
0.537007 -0.849671 -0.029361
-0.425754 -1.096645 0.139372
0.068489 0.439785 0.082860
0.235357 -0.116104 0.071130
-0.899461 0.220287 -0.121265
-0.186221 0.301122 0.086178
-0.410708 -1.125368 0.158172
-0.247952 -0.703533 -0.028043
0.632666 0.226068 -0.114184
0.168205 -0.270162 -0.108957
0.032848 0.286884 -0.145732
-0.004682 -0.213689 -0.248884
-0.538776 -0.962417 0.007725
0.048486 0.400075 0.170885
-0.022307 -0.007595 0.209124
-0.152976 -0.588990 0.138465
0.911393 0.183275 -0.130508
-0.097828 -0.154507 0.234850
-0.388843 0.100960 -0.031219
-0.368362 -0.601410 0.079980
0.045047 -0.188307 0.208475
0.549108 0.180812 -0.097135
-0.198200 -0.418952 0.078444
-0.223715 -0.445790 0.210974
0.329122 -0.411620 -0.007883
0.652556 0.247336 -0.050851
-0.194675 -0.296907 0.036262
0.529403 -1.055220 -0.070485
-0.507089 -1.112561 -0.109954
-0.129635 -0.518454 -0.185843
-0.208325 -0.171431 0.108680
-0.399612 -0.845366 0.044017
0.223052 -0.209400 0.148257
-0.352062 -0.543063 0.050395
0.085331 0.018139 -0.164455
0.808564 0.261742 -0.020287
-0.614190 -1.028203 0.183104
-0.069697 0.330425 0.149033
-0.207467 -0.360411 0.135988
0.395065 -0.745156 -0.155170
-0.017816 0.607710 -0.078860
-0.513207 0.154369 0.041006
0.189924 -0.108997 0.148116
0.169496 -0.203578 0.196188
0.238662 -0.494069 0.200317
-0.754230 0.275674 -0.073945
0.094745 0.598794 0.012486
-0.885401 0.158002 -0.144434
-0.397345 0.178806 -0.128775
0.426446 -0.762361 -0.118548
-0.389852 0.119157 -0.010491
0.475863 0.256603 -0.105532
0.119366 -0.460248 -0.193731
-0.301918 -0.643943 -0.135279
-0.137040 -0.012352 0.166915
-0.177611 -0.411554 0.119069
0.174182 0.200193 -0.151217
0.432295 -0.631296 0.002884
0.184775 -0.028801 0.069006
0.231750 -0.652542 -0.105964
-0.501955 -1.009127 0.197595
0.225049 -0.040683 0.016431
0.518843 -0.973284 0.190148
-0.265323 0.291082 -0.116695
-0.051491 0.045631 -0.200778
0.228124 -0.127289 0.033354
-0.267862 -0.366169 0.108632
-0.261550 -0.568312 0.190261
0.281381 -0.859295 0.030264
-0.213064 -0.372841 0.180906
0.926141 0.272429 -0.079476
0.223535 -0.389365 0.164843
-0.939272 0.191831 0.022329
-0.047109 0.165408 0.139920
0.304193 -0.433893 -0.062871
0.104920 -0.275421 -0.155531
0.874695 0.202244 -0.165564
-0.423263 -0.996730 -0.074265
0.210694 0.275775 0.096560
-0.085113 0.404171 0.037795
0.023501 0.426043 -0.144837
0.139170 -0.186969 -0.195176
0.481661 -1.166158 -0.017945
0.163004 0.267699 0.089558
0.423466 -0.997332 -0.094058
-0.111577 -0.499090 -0.179079
0.195243 -0.032902 0.113927
-0.577003 -0.984280 0.019578
0.160945 -0.024654 -0.112064
-0.478347 -1.155640 0.090921
0.207286 0.140430 -0.131946
-0.489361 -0.892309 0.027524
-0.088233 -0.071332 -0.168717
0.154336 -0.199663 -0.191582
0.020849 0.639581 0.044060
0.045755 0.413140 0.191484
-0.239503 -0.414480 -0.154135
-0.063680 0.623433 -0.019792
0.190311 -0.337816 -0.222250
0.250944 -0.297667 0.066494
-0.520974 -1.108121 -0.134897
0.057694 -0.577064 -0.010402
-0.572985 -1.056043 -0.129655
0.745518 0.222740 -0.081093
0.197091 -0.538970 0.145283
-0.367729 -0.590333 -0.063036
0.002076 -0.248302 -0.270635
0.512467 0.249805 0.033405
-0.239942 -0.057527 0.007202
-0.841500 0.155985 -0.043482
-0.022473 0.335767 0.124363
0.197456 0.265977 -0.006983
-0.281468 -0.919263 0.009658
-0.198078 -0.053366 0.120749
0.101095 0.366505 0.102055
0.122324 0.343153 -0.044195
-0.177255 0.344048 -0.068898
0.153911 -0.265385 0.150047
0.794208 0.200312 0.090562
-0.305652 -0.448769 0.071105
0.488810 -1.091697 -0.135006
0.321601 0.101080 -0.091992
-0.223828 -0.233570 -0.062889
-0.170014 0.337974 -0.095542
0.070448 0.510047 -0.122104
0.331811 0.115268 0.043953
0.376083 -0.600245 -0.038771
0.157003 0.216531 0.121380
0.142907 -0.687927 -0.040265
-0.649763 0.207455 0.036678
0.206010 -0.114977 -0.023045
-0.497500 -1.120901 0.114105
-0.037062 -0.212908 -0.239464
-0.193471 -0.733788 -0.088079
-0.366711 -0.991891 0.024525
-0.480763 -0.834676 -0.118508
0.074081 -0.258013 0.237398
-0.871396 0.170855 0.079799
0.393385 -1.098025 -0.027075
0.199102 -0.391887 -0.216167
-0.496155 -1.002940 0.050471
0.256115 -0.182679 -0.003047
-0.484835 -0.987952 0.039660
-0.554619 0.249261 0.061251
-0.546038 -1.142620 0.113286
0.093800 0.334974 0.128969
0.404812 -0.938635 -0.149931
0.597664 -0.997518 -0.087609
-0.453375 -0.939079 0.074358
0.092693 -0.439290 -0.182602
0.010086 0.079658 -0.179439
-0.514189 -0.877898 -0.066685
0.351845 0.199936 -0.097551
0.133478 0.491804 -0.082534
0.224134 -0.409021 0.194398
0.089196 0.562142 0.092884
0.146584 0.309380 0.092981
0.231900 -0.245638 -0.100535
-0.579330 -1.003780 -0.074040
-0.081748 -0.528940 -0.065071
-0.850004 0.260320 0.086455
0.130162 0.261315 0.105328
0.250280 -0.317913 -0.013331
0.092331 0.491830 0.091357
0.306955 -0.776198 0.047603
-0.049065 -0.017731 -0.189371
-0.034311 -0.095843 0.229939
0.259930 -0.313772 0.093998
0.132874 0.391773 0.077494
-0.266256 0.177246 -0.158004
-0.298951 0.320200 -0.005207
0.561273 -1.079373 -0.087145
0.130856 -0.348366 -0.228254
0.264831 -0.786640 -0.103843
-0.201992 -0.118748 0.094498
-0.024876 -0.485499 0.128167
0.501711 0.332563 -0.063482
0.286079 -0.282329 0.076862
0.542757 0.196367 0.062991
0.243007 -0.469571 0.153446
0.313448 0.323874 -0.022977
0.152479 -0.495094 0.196915
-0.124589 -0.582599 -0.033563
-0.115334 -0.040648 0.214961
0.435748 -1.071264 0.198431
0.068049 0.298434 -0.134818
0.072410 -0.001915 -0.198436
0.014764 -0.326803 0.227656
0.331696 0.237249 -0.107059
0.442263 0.309272 -0.097532
0.382800 -0.668064 0.088326
-0.177954 0.148534 -0.161098
-0.064299 0.344137 -0.100699
0.052785 -0.069233 0.158448
-0.498360 -1.080495 -0.114995
0.489010 -1.123438 0.202771
0.077107 0.587080 -0.006559
-0.253051 0.190855 -0.129640
0.038454 -0.050797 0.187455
-0.559516 0.284051 -0.101713
0.090814 0.472104 0.128013
0.112955 0.012239 0.207836
-0.042186 -0.232039 0.187260
-0.200581 -0.332600 0.117190
0.183284 -0.281968 0.205084
0.170590 0.328841 0.048371
-0.831105 0.266334 0.059891
0.430340 -1.027891 0.094274
0.398481 0.312777 -0.075490
-0.321648 -0.413114 -0.010608
0.901595 0.273643 -0.061226
0.174762 -0.093771 -0.095182
-0.550638 -1.068757 -0.147247
-0.317489 0.153249 -0.115951
-0.521014 -0.960052 0.127096
-0.127518 0.493460 0.074678
0.137239 -0.678058 0.098847
-0.512261 0.135668 -0.078188
0.215115 -0.289902 0.172608
0.042537 -0.533231 -0.108467
-0.218815 -0.090292 -0.066628
-0.075220 -0.435424 -0.119486
0.233843 -0.104821 -0.043094
0.141402 -0.188053 -0.163868
0.432939 -0.990836 0.116005
-0.253587 -0.610439 0.150023
0.511396 0.275108 -0.028026
-0.016423 -0.148488 -0.255132
-0.503031 0.270462 -0.012191
-0.388216 -0.593170 -0.030908
-0.430032 0.306659 -0.082845
0.522124 -0.957546 -0.073613
-0.463863 -1.138955 -0.004335
-0.603471 -0.981228 0.048254
-0.497544 -0.965409 0.049937
0.107588 0.375269 0.098057
-0.163449 -0.034813 -0.090304
0.193188 -0.286655 -0.216292
-0.236209 -0.720286 0.108852
0.384118 -0.673133 0.062137
-0.043101 0.248315 0.137287
-0.060884 -0.250140 -0.265459
-0.264783 0.067405 -0.014664
0.017450 0.232957 -0.191872
0.403114 0.261615 0.010161
0.276411 -0.821286 0.072284
-0.299834 0.175484 0.062470
-0.067233 0.089266 0.198808
0.037193 -0.106288 -0.199043
-0.562678 -1.121142 0.131012
-0.897902 0.190935 0.046365
-0.054833 -0.530621 -0.110510
0.409512 0.103765 -0.069795
-0.195191 0.084366 0.142031
-0.401084 0.144205 -0.069588
-0.007917 0.275737 -0.163033
-0.056455 0.473833 -0.109464
-0.553256 -1.069725 -0.128464
0.624312 0.309326 -0.012229
0.394093 -0.585982 0.028626
-0.211750 -0.199125 -0.031856
0.579907 -0.993619 0.088871
0.253690 -0.551691 -0.077372
0.261235 0.226343 -0.096089
0.270614 0.004402 -0.024056
0.878204 0.286726 0.003572
-0.390155 -0.626131 0.045944
-0.241411 -0.592682 -0.123102
0.069804 -0.608370 0.066362
0.586067 -1.131624 -0.000007
-0.354101 -0.514348 0.032476
-0.432733 0.345666 -0.066079
0.782169 0.278485 -0.120771
0.533574 0.147572 -0.007135
0.308505 -0.587271 -0.096246
-0.697755 0.258054 -0.098686
-0.365690 -0.766875 -0.127475
0.306823 -0.660217 -0.133188
-0.146989 0.427173 0.009702
-0.226426 -0.117762 -0.092820
-0.072143 0.466326 0.150084
-0.881305 0.172507 -0.093993
0.406444 -1.068047 -0.103570
0.162408 0.170910 -0.143190
0.216510 -0.482986 0.121318
-0.545062 -1.160163 0.169109
-0.514010 -0.847192 -0.069282
-0.338915 0.089119 -0.073289
0.531775 0.138795 -0.079442
-0.459390 -0.834426 0.061324
-0.011215 -0.348182 0.102971
-0.246451 -0.569345 -0.103377
0.104882 -0.194450 0.224371
0.228514 0.339537 -0.053690
-0.364194 -0.683455 -0.059852
-0.011040 -0.248733 0.254665
0.003731 -0.519397 -0.077877
-0.775665 0.264298 -0.146225
-0.301853 -0.390179 -0.066846
-0.322170 0.273968 -0.056698
0.222533 0.097978 -0.099694
-0.636008 -1.017438 0.121783
-0.353416 -0.628472 0.142624
-0.171562 -0.008152 0.004915
-0.501389 -0.948346 -0.138608
-0.254890 -0.843296 0.041752
0.271736 0.191528 0.080481
0.114732 -0.242741 -0.181626
-0.901306 0.221128 -0.160805
-0.583749 -1.023734 -0.049896
-0.439477 -0.722517 0.076154
0.442040 0.287869 -0.106417
-0.001645 -0.394513 -0.248608
0.274722 -0.573635 0.155916
0.235639 -0.228224 -0.021511
-0.627436 0.140943 -0.008149
0.582530 -1.007004 0.168627
0.237328 -0.061289 0.031114
-0.445962 -1.146539 0.203422
-0.053384 0.142367 0.162207
-0.850953 0.179197 -0.113442
-0.392993 -0.666229 0.010847
0.808835 0.282914 0.048279
-0.451625 -1.084357 0.178669
-0.261074 -0.523689 -0.120401
-0.166971 -0.307409 0.222194
-0.063927 -0.565960 -0.094497
-0.125000 0.437092 -0.095315
-0.002336 0.602417 0.083817
0.362984 -0.943228 -0.131391
0.424371 -0.812592 0.082454
-0.656348 0.224967 0.080084
0.640251 0.221720 -0.096362
-0.526401 -0.964826 0.062663
-0.050534 -0.537901 -0.067492
-0.285929 -0.536836 0.178868
0.728944 0.283823 -0.050081
-0.159011 -0.467312 -0.199165
0.298019 0.277458 0.015476
-0.355034 -0.467879 0.022446
0.048998 0.398483 0.153388
-0.185688 0.132681 -0.149811
-0.173315 -0.468603 0.120199
0.438912 -0.675366 0.067940
-0.129793 -0.632748 0.042431
-0.102982 0.581168 0.074025
-0.235815 -0.137111 0.013710
-0.486684 0.257800 0.018686
-0.507882 0.266932 -0.122021
0.080504 -0.280646 -0.242458
0.131439 0.366905 -0.017638
-0.447821 0.107993 -0.051912
0.232928 -0.345457 -0.014302
0.213685 0.108486 -0.096109
-0.107458 0.130111 0.013841
0.577452 -1.065174 0.217221
0.137981 -0.229000 -0.202686
-0.095033 0.313709 -0.095446
-0.446540 -0.946762 0.001683
0.325988 -0.769562 -0.161815
-0.044039 0.260686 -0.150808
-0.482172 0.323871 -0.017517
0.201223 -0.114307 0.152991
0.372591 -1.054464 -0.009474
0.170597 -0.671406 0.082788
0.193250 0.275030 -0.125112
0.328898 0.084392 -0.011827
0.401732 -0.708973 -0.107381
0.452205 -0.816084 0.073055
-0.052967 0.374510 0.156073
0.315366 -0.526359 -0.004493
0.325669 -0.926494 0.024787
0.643222 0.186697 0.061686
-0.147467 -0.056721 0.199011
-0.589588 0.201328 0.063984
-0.736556 0.279885 -0.059296
0.452916 -1.110911 0.125737
0.267023 -0.586695 -0.100828
0.495276 -0.930734 0.073296
0.322068 0.290356 0.055162
0.375505 0.328235 -0.014022
-0.039396 -0.348851 -0.236882
0.190659 -0.501594 0.163238
-0.059662 -0.472148 0.162806
0.226603 0.082965 -0.008756
-0.777813 0.147868 -0.138985
-0.435613 0.173162 0.029363
-0.213489 0.249432 -0.091706
0.597337 0.190345 0.052453
-0.126379 -0.550806 -0.016542
-0.434779 -0.789471 0.001291
0.159783 -0.518212 -0.187748
-0.310614 -0.678343 0.149385
-0.868644 0.235816 -0.136043
0.471846 -1.121833 0.212907
-0.182530 -0.617601 0.099199
0.151510 -0.472117 -0.169625
0.182037 -0.038317 0.101896
0.305074 -0.695067 -0.101122
-0.426803 -1.058969 0.158834
0.098484 -0.130803 -0.143818
0.428410 -1.087455 0.065407
-0.117616 0.463235 0.000686
-0.717610 0.318384 -0.016336
-0.115522 -0.151366 -0.149094
0.312734 0.191559 -0.113867
-0.129115 0.533812 -0.069386
0.008340 0.473129 -0.147816
-0.284792 -0.443105 -0.089849
0.482604 0.152470 -0.113564
-0.476199 -0.928368 0.055844
0.448815 -1.056915 0.002646
0.008369 -0.202474 -0.202025
-0.320055 0.131094 -0.008636
-0.314136 0.201588 0.071476
0.482347 -0.946198 -0.082102
0.194414 -0.587280 -0.151139
-0.193799 -0.537744 -0.150384
0.210481 -0.258618 -0.135459
0.243586 0.068256 0.075941
0.627044 -1.030390 0.064218
-0.051907 0.036571 -0.228175
0.369832 -0.931627 -0.125027
0.102491 0.365428 -0.068214
0.059334 -0.161532 -0.230824
-0.524709 -0.797016 -0.019801
0.143947 0.131289 0.164105
0.557805 -1.119011 0.030426
-0.067132 0.093375 0.211317
0.273939 -0.557714 0.180579
-0.958998 0.196945 -0.034382
-0.078885 -0.072632 0.214926
-0.113467 -0.570276 0.150294
-0.178636 0.137806 -0.018387
-0.454137 -1.079112 0.149346
0.723116 0.290431 0.000890
-0.375240 -1.017014 -0.021425
0.103931 -0.098239 0.195351
0.454679 0.260207 0.004152
0.448073 -0.780263 0.021586
-0.232768 0.043974 0.134325
-0.253818 -0.402547 -0.154652
-0.139517 -0.507911 -0.190050
-0.139296 0.295150 -0.061180
0.465023 0.190788 0.069086
0.062041 -0.046309 0.193687
-0.949726 0.242025 0.006711
-0.872819 0.287874 -0.114142
-0.516448 0.197934 0.008684
0.600748 -1.054264 -0.035774
-0.271670 -0.723169 -0.072747
-0.497628 -0.954556 -0.076489
0.386536 -0.687674 -0.113916
-0.229991 0.072486 0.020032
0.549939 0.326570 -0.081492
0.240701 -0.783148 -0.094627
0.245931 -0.346269 -0.156022
0.869968 0.277797 -0.089230
-0.273224 0.301211 -0.070045
-0.060624 0.337969 0.150884
-0.046042 -0.185545 0.252062
-0.398455 0.226584 0.001155
0.263431 -0.477789 -0.008880
0.325348 -0.769602 0.030601
-0.425351 -1.077216 -0.082116
-0.265136 0.022640 -0.022341
-0.065999 -0.200452 -0.231453
0.075993 0.485719 -0.088919
-0.498989 -0.926168 -0.100701
-0.470576 0.294323 -0.096851
-0.369505 -0.687586 -0.131823
-0.267802 -0.494932 0.158437
-0.261264 0.103509 -0.097139
0.086170 -0.238230 -0.246496
-0.314235 0.184964 0.088521
0.076572 0.357884 0.086078
0.314667 0.144084 -0.046697
0.121588 -0.586893 -0.059837
-0.231053 -0.683696 -0.084039
0.103435 -0.313584 0.158808
0.025624 -0.297507 -0.271974
0.307608 0.289126 -0.088695
-0.109693 -0.615664 -0.039998
-0.861057 0.299921 -0.073746
-0.116130 0.008079 -0.113546
0.061468 0.566125 -0.105017
0.212608 -0.142746 -0.080503
-0.772878 0.291572 0.034236
0.155551 -0.285449 -0.081710
0.006266 0.518394 0.141822
0.329220 -0.540593 -0.091529
-0.017845 0.602148 -0.104548
0.262404 0.054485 -0.067676
0.158503 -0.653791 -0.029236
-0.179271 0.081487 0.143428
-0.457395 -0.892144 0.063322
-0.266587 -0.723085 0.079895
-0.189516 -0.715379 -0.088732
-0.832649 0.160636 -0.019197
0.090214 -0.407995 0.229555
0.519837 -1.127759 0.014671
-0.459238 -0.690794 -0.011110
0.494121 -1.134088 -0.110153
-0.472726 -1.082637 0.187111
0.402578 -0.628831 -0.003205
-0.498734 -0.881192 -0.037294
0.457314 -1.094419 0.069426
0.251656 -0.686560 -0.110721
-0.157607 -0.480946 -0.130160
0.864380 0.269702 -0.117398
0.244106 0.145249 0.099571
-0.215061 0.329994 0.001194
0.207532 -0.241460 0.157460
-0.457469 -1.054515 -0.033909
0.055344 0.592507 -0.071307
0.572613 0.266077 -0.118171
-0.473926 -1.026327 0.215626
0.035851 -0.307316 -0.225973
-0.255136 -0.249378 0.011992
-0.157763 -0.629907 0.007540
-0.089647 0.451572 0.108333
-0.264742 0.024154 0.013549
0.321537 -0.650050 -0.032024
-0.067401 -0.498344 -0.144882
-0.419691 0.165834 0.052609
0.472902 0.115540 -0.073482
-0.258106 0.283413 0.057381
0.238885 0.091057 -0.032357
0.102757 0.408501 0.030489
0.832199 0.218693 -0.015795
0.859927 0.185362 -0.063962
0.352067 0.136528 0.011311
-0.014977 -0.104266 -0.198699
-0.627414 -1.052021 0.072767
-0.329286 -0.612156 -0.097349
-0.364275 0.104176 -0.007036
0.005398 0.601350 -0.000494
-0.185674 -0.120308 -0.145253
0.455482 0.166156 0.007283
-0.381068 -0.619094 0.089540
-0.249760 -0.345403 -0.023086
-0.633479 -1.044047 -0.007793
-0.320908 -0.661811 0.101465
0.291498 0.319707 -0.002781
-0.606224 -0.991138 0.071289
-0.057599 0.621932 0.059244
-0.385018 -0.667890 0.121861
0.060434 0.260769 0.133704
-0.674060 0.234122 -0.131466
-0.537734 0.192990 -0.105156
0.328101 0.277338 -0.104489
0.246472 -0.489510 0.081990
-0.087538 -0.136670 -0.232891
0.272058 0.194624 -0.095316
-0.579743 0.293609 -0.036504
0.127830 0.271105 -0.113398
-0.225975 -0.117002 -0.035646
0.114360 0.259811 -0.170936
0.433411 -0.926661 0.031690
0.312233 -0.947877 -0.016399
0.481800 -0.899006 0.058757
-0.379000 -0.719714 -0.121745
-0.216793 -0.552188 0.166339
0.258120 0.068288 -0.059025
0.150926 0.014673 -0.012898
0.597558 -1.030563 -0.125065
0.335568 -0.600372 0.134088
0.680402 0.264033 0.041971
-0.865319 0.181704 -0.078751
-0.373776 -0.669962 0.068198
0.490468 -1.138932 0.028991
-0.054285 0.362867 0.114132
-0.257127 -0.530889 -0.029626
-0.577947 -0.996974 -0.124130
-0.314399 -0.708645 0.089518
-0.548564 0.206025 0.011415
-0.098650 -0.162906 -0.055602
0.121411 -0.620822 0.092862
-0.442602 -1.080758 -0.063302
-0.216713 -0.133576 0.159121
-0.418371 -0.981668 0.023670
-0.277059 -0.824265 -0.135358
-0.030472 0.422145 0.175208
0.107652 -0.540445 -0.118046
0.752744 0.230293 -0.095183
-0.054586 -0.570526 -0.055668
0.460184 -0.873463 -0.155386
0.009117 -0.293738 -0.253378
0.142656 -0.402850 0.195503
-0.021345 0.427401 -0.127502
-0.100379 0.499440 -0.112549
-0.236673 -0.810554 -0.101603
0.028489 0.567470 -0.055474
-0.123821 -0.572279 -0.141002
-0.052314 0.089095 0.210711
-0.298092 -0.749485 -0.117346
0.444553 -0.996056 0.140228
-0.343375 -0.674160 -0.143267
0.683818 0.203763 0.073282
-0.310449 -0.574214 0.091147
0.316158 0.102459 0.015640
0.361634 0.213929 -0.050971
-0.227258 0.108389 -0.123876
-0.380552 -0.610354 -0.047069
-0.330845 0.135515 -0.065004
0.252079 -0.268971 0.042037
-0.166483 -0.224458 -0.217029
0.266825 0.309522 -0.003622
0.234717 0.205498 0.090466
0.241880 -0.707927 -0.119839
0.470346 0.292846 0.029764
-0.182988 -0.414480 0.195997
-0.166589 0.019343 0.148084
-0.320726 -0.590224 -0.102418
0.062948 0.238116 -0.184022
0.256601 0.168154 0.098598
-0.267701 -0.630905 -0.120693
-0.184605 -0.775038 -0.042379
0.106281 -0.248397 -0.155433
-0.172981 -0.063530 0.131605
-0.314009 0.234454 0.059093
-0.306024 -0.862031 -0.132759
-0.393497 -0.991305 -0.093511
0.302996 -0.458288 0.088351
0.805630 0.243241 -0.157694
-0.460622 -0.990270 0.145191
-0.248106 -0.089073 0.058487
-0.046221 0.274989 0.132049
0.020411 0.494289 0.164180
0.210196 -0.219403 -0.097172
0.498192 0.181676 -0.013331
0.200226 0.348605 -0.033048
0.166106 0.291953 -0.099300
0.102620 0.016161 0.160199
0.177864 0.174845 0.070587
-0.524333 -0.973821 0.002923
0.049929 0.461619 0.067468
0.402470 -0.760525 -0.144933
0.878355 0.261584 -0.035987
-0.044624 0.599989 0.000572
0.426121 0.146024 -0.027696
-0.401078 -0.938043 0.088826
-0.072978 -0.606045 -0.039742
0.088885 0.375799 -0.093821
0.495826 -0.791951 -0.057076
0.062138 -0.262448 0.228297
-0.306174 -0.474151 -0.051942
-0.172693 -0.383914 -0.156580
0.092221 0.434129 0.118350
-0.351207 0.134022 -0.082983
0.392576 -0.670732 -0.102242
-0.138389 -0.192738 -0.198947
-0.471200 0.127867 -0.077620
-0.068334 -0.409904 0.209839
0.263364 -0.108148 0.041357
0.257799 -0.633833 -0.130387
0.779533 0.206814 -0.114322
-0.118199 0.395836 0.104568
-0.365418 -0.686834 0.092651
0.869047 0.242333 0.067176
-0.127570 -0.419650 0.171714
0.241594 -0.228547 0.018575
0.615893 0.310860 -0.056097
0.318956 -0.918513 0.072023
0.031485 -0.476318 -0.148638
-0.503669 -1.139738 0.049413
0.338395 -0.898009 -0.111798
-0.139741 0.344583 -0.096979
-0.617612 0.155328 0.004797
-0.033628 -0.184168 0.187996
-0.262281 -0.529639 -0.144416
0.094559 -0.236257 0.246056
0.776547 0.278415 0.055803
0.118885 -0.113838 0.105852
-0.081372 0.407502 -0.035453
-0.375151 -0.526367 0.039664
-0.266771 -0.387606 0.135975
0.564542 -1.010217 0.120705
-0.025384 -0.248420 0.143776
-0.417459 0.135190 -0.084072
-0.169480 0.294705 -0.126705
-0.013336 -0.457673 -0.110574
0.357228 -0.869149 -0.057440
-0.230504 -0.719423 -0.094932
-0.484198 -1.088370 0.233415
-0.472868 0.304599 0.009707
0.033641 0.609577 -0.093406
0.325279 -0.692367 -0.153751
-0.053365 -0.106565 -0.236259
0.494777 -1.045347 0.225016
0.409832 -1.098941 -0.046494
0.579639 0.161491 0.016432
-0.082467 0.593175 0.055640
-0.030222 0.260631 -0.153128
0.545542 -1.028746 0.227755
0.098517 0.162056 0.160380
-0.029008 0.309433 0.154740
0.589350 -1.006019 0.051409
-0.199069 -0.252781 0.192311
-0.767212 0.197832 -0.158228
0.228698 -0.702658 -0.111405
-0.159661 0.115888 0.094771
0.199798 0.034370 -0.051456
0.200145 -0.584697 -0.109672
0.373086 -0.895545 0.053867
0.510457 0.253668 0.056062
0.545306 0.169699 0.050217
-0.238770 -0.438347 0.176444
0.140965 -0.622599 0.032974
-0.283871 -0.803950 0.079188
0.431709 -1.093016 -0.009202
0.113788 -0.091072 -0.216477
-0.263255 -0.318034 -0.089063
-0.066776 -0.485078 -0.190519
-0.234525 -0.727605 0.120426
-0.464679 -1.029904 -0.101728
0.243430 -0.290188 0.101329
-0.070272 0.318119 -0.127270
-0.412369 -0.851715 0.079944
0.055572 -0.370998 -0.140708
0.194913 -0.793276 0.011128
-0.458325 -0.993103 -0.091803
0.508553 0.332378 -0.030033
0.506790 -0.923884 -0.053179
0.177196 0.140224 -0.127561
0.236938 -0.794377 0.013548
-0.004819 -0.436791 -0.035880
0.540399 -0.942211 0.004850
0.954609 0.276413 -0.034679
0.192009 -0.703668 0.116417
0.350622 0.121325 0.021590
-0.755348 0.152010 0.007183
-0.398249 0.164015 -0.096723
-0.136727 0.144172 0.092968
-0.134231 0.539372 0.066182
0.089510 -0.163538 -0.177737
-0.066688 -0.190601 0.223211
-0.339856 -0.919408 0.053802
-0.015848 -0.360956 0.139679
0.527893 -1.004368 0.219582
0.010504 -0.178087 -0.243131
-0.052309 -0.087882 -0.223078
0.219549 0.249644 -0.064990
-0.200326 -0.256552 -0.133017
0.003307 0.632939 0.014469
0.458755 -0.723668 0.011491
0.121629 -0.554591 -0.107529
-0.494688 0.197083 -0.093524
-0.064251 -0.498861 0.095913
-0.200831 -0.462000 -0.137674
0.199307 -0.068193 -0.130951
-0.162120 -0.216833 0.204175
-0.449230 -0.813259 0.017944
-0.835018 0.241627 0.030919
-0.840070 0.223321 -0.109487
-0.142867 -0.338825 -0.235895
-0.067868 0.116822 0.148116
0.388723 0.160566 0.039254
-0.118472 -0.045267 0.046729
-0.623232 -1.046751 0.105305
-0.469773 0.282833 0.058268
-0.151906 0.229297 0.071989
-0.845376 0.202870 -0.176232
0.210606 0.016540 0.108811
-0.101842 -0.474059 -0.155179
-0.374800 -0.852412 -0.116792
0.329489 -0.491573 0.101362
0.792193 0.195197 -0.128921
-0.448195 -0.663511 0.023549
-0.304993 -0.583480 -0.053069
0.949605 0.177887 -0.090372
0.128797 0.080616 -0.115020
0.104345 -0.396238 -0.167304
-0.578985 -1.012173 0.058279
-0.702223 0.175362 -0.051291
-0.470101 -0.994032 0.116333
0.200715 -0.383173 0.197035
0.104150 -0.188283 -0.240542
-0.614166 -1.014090 0.124138
-0.058037 -0.504215 -0.006975
-0.359015 -0.793316 0.117396
-0.182290 -0.434944 0.168809
-0.864241 0.270805 0.061808
-0.274223 -0.518809 0.087080
0.237404 -0.583878 -0.070843
0.360504 -0.794078 0.102093
0.545060 -0.954446 -0.093201
0.431680 -1.000909 -0.131007
0.244423 -0.647794 -0.067402
-0.942457 0.290847 -0.030042
-0.112834 -0.529078 0.145192
0.118426 -0.182579 -0.193749
-0.553209 -1.144900 -0.051215
-0.779032 0.298593 -0.083760
-0.426195 0.167013 -0.112401
0.255394 0.057187 0.085377
-0.060414 0.151718 0.184838
-0.570773 -0.997066 -0.138808
0.515311 -1.161034 0.206527
0.052408 -0.067692 0.173249
0.435642 -1.110133 0.156993
-0.548128 -1.122727 0.126361
-0.148385 0.083439 0.120903
-0.182903 -0.390967 -0.197188
0.508220 -1.165816 -0.074052
-0.141752 -0.143335 -0.120923
-0.398949 -0.858828 0.063921
0.714634 0.169917 0.023500
0.002255 -0.347662 -0.208340
-0.181982 -0.366691 -0.192711
0.202530 0.270372 -0.087513
-0.447458 0.296786 -0.032712
-0.111094 0.442180 0.049527
-0.393479 -0.973645 -0.082955
0.548160 -1.153909 -0.013811
-0.160785 0.130860 0.135409
0.077220 -0.142723 0.219589
-0.110808 -0.526219 -0.026316
-0.094594 -0.099460 -0.205482
-0.474391 -1.132182 -0.013933
0.134188 -0.304373 0.111730
0.456865 -0.781228 -0.083484
0.562591 0.283779 -0.043385
-0.103869 0.269988 -0.155090
0.129259 0.463145 0.096726
0.188203 0.003768 -0.100492
-0.081774 0.517009 -0.070559
0.287420 0.312588 -0.055396
-0.022175 -0.016553 0.195545
-0.567721 -1.030197 -0.079778
0.310797 0.212722 -0.102663
0.231881 -0.061912 -0.017620
-0.714667 0.206831 -0.072269
-0.012565 -0.171296 -0.242090
0.788865 0.303592 -0.021687
0.171409 -0.588048 -0.141254
-0.684838 0.220570 -0.091133
0.245380 -0.268149 0.114664
0.042238 0.226875 -0.151852
-0.609885 -1.020863 0.010510
-0.619381 -1.062296 -0.051036
0.379457 -0.926899 -0.129814
0.857994 0.245005 -0.134161
-0.061456 0.466474 0.144059
0.212155 -0.059052 -0.027961
-0.178892 -0.600210 0.103878
0.057434 -0.009897 0.187972
0.068007 -0.152160 0.166609
-0.517176 -1.059638 0.073445
0.907050 0.163719 0.024784
0.274964 -0.708302 0.087566
0.582252 -1.049557 -0.080447
-0.041013 -0.453862 -0.132494
0.268158 -0.325446 -0.066949
-0.148825 -0.644915 0.133590
-0.156552 0.296498 -0.136390
-0.501316 -1.013721 0.247954
0.488025 0.265098 0.069908
-0.509911 -1.104220 -0.018351
-0.163112 0.176860 -0.181517
-0.087266 -0.381894 0.025805
-0.010110 -0.291397 0.261484
-0.127793 -0.523248 0.149122
-0.832431 0.271973 -0.158217
0.391874 0.102886 -0.080293
0.181761 -0.107393 0.005873
-0.380037 0.135300 -0.039722
-0.103680 -0.554653 0.161762
0.278661 -0.376707 0.056011
-0.330241 -0.771179 0.093675
0.484172 -1.150127 -0.095839
-0.844236 0.264985 -0.042580
0.116241 0.072154 0.212300
0.137718 -0.707304 -0.028415
0.082712 0.425474 -0.049582
-0.247505 -0.425659 0.093893
0.424981 -1.023624 0.129685
-0.758252 0.244072 -0.123900
-0.115250 0.588814 0.032129
-0.073802 -0.258375 -0.176266
-0.235489 -0.697961 0.122707
-0.219659 0.074028 -0.123223
-0.447303 0.236488 0.047988
0.019274 -0.343355 0.227393
-0.669132 0.191729 -0.074019
-0.106081 0.319942 0.076122
0.483230 0.175107 -0.064540
-0.223030 -0.789770 -0.110200
0.086503 -0.394860 -0.219616
0.412829 -0.615768 -0.048322
0.172667 -0.096455 0.181135
-0.508032 -1.002616 -0.055473
-0.055703 -0.454504 -0.167435
0.149737 -0.555885 -0.085689
0.092465 -0.005806 0.217967
-0.338563 -0.887469 0.085303
-0.014503 0.480849 0.167735
0.260735 -0.604262 0.095686
-0.124806 0.442175 0.069334
0.342914 -0.448609 0.027016
0.420044 -0.677940 0.045698
0.071786 -0.058732 -0.219697
0.600171 0.268296 -0.108746
0.358611 -0.470586 0.016062
-0.835886 0.290504 0.014942
-0.133313 -0.180141 0.026216
-0.437390 0.274730 -0.111622
-0.017675 0.281430 -0.119403
-0.511335 -1.159666 -0.107337
-0.810939 0.230727 0.067862
-0.038840 0.197248 0.174105
-0.062612 -0.023520 -0.113050
0.792350 0.253087 -0.068122
0.569354 -1.097319 0.188397
0.615813 -0.966472 0.057294
-0.470429 -0.975901 -0.148823
0.124546 -0.217841 -0.124719
0.353262 -0.617327 0.116655
-0.550378 -0.909980 -0.077455
-0.121699 -0.589166 0.078377
0.017955 0.124297 -0.067132
0.055098 -0.287559 0.181409
-0.474495 0.130164 -0.045143
0.310633 0.185389 0.071966
0.273251 0.281466 0.003051
-0.548462 0.233657 0.072820
-0.502352 0.323890 -0.057070
0.655279 0.229325 0.001346
0.604594 0.251860 0.053726
-0.056201 0.595028 -0.032196
0.027686 -0.211801 -0.262593
-0.355549 -0.810455 -0.152646
0.400784 0.117122 -0.092986
0.795832 0.315135 -0.040081
-0.767831 0.153474 -0.099712
-0.064800 0.540078 0.067139
0.923773 0.215373 -0.025213
-0.194770 0.032032 0.103806
-0.579139 -1.095529 0.157350
0.226837 0.201080 -0.013673
-0.497286 -0.972233 0.016370
-0.417349 0.285307 0.025878
0.070066 0.521682 -0.144796
0.200617 -0.077946 -0.015334
-0.370427 -0.872366 0.074934
-0.348662 -0.589615 -0.027837
-0.091532 0.199373 0.144228
0.439594 -0.855475 -0.140395
0.372116 -0.716155 0.093795
0.082799 -0.088309 0.054130
-0.240540 -0.061522 0.073905
-0.575772 0.186612 -0.088291
-0.032208 -0.140738 -0.223002
-0.257333 -0.377594 0.101362
-0.187938 0.267688 -0.105130
0.356944 -0.475306 0.002283
0.375147 -0.523108 -0.007247
0.266635 -0.180608 0.035630
-0.196750 -0.731731 -0.070683
0.323197 -0.600120 -0.070158
-0.525991 -1.129737 -0.053526
0.532102 -0.899624 -0.061053
0.402717 -0.896377 -0.079273
-0.198604 -0.754542 0.079749
0.321659 -0.530595 0.092800
-0.248807 0.249658 0.065580
-0.633251 -1.083865 0.094324
-0.270884 -0.812767 -0.034087
-0.276853 -0.575232 0.128126
0.225805 -0.146936 -0.048040
-0.886035 0.182428 -0.089996
0.454367 0.207949 0.022903
-0.490187 -0.797186 -0.004217
0.169447 -0.250988 0.134934
-0.088439 -0.083709 -0.206321
-0.249122 0.242096 0.041186
0.050363 -0.167823 -0.121135
0.361104 0.155188 -0.100971
0.246125 0.308545 -0.030192
0.838165 0.269175 -0.071303
-0.489484 -0.836569 0.055144
0.080370 0.239229 -0.183932
-0.112056 0.119949 0.081191
-0.086505 -0.347340 0.218867
-0.517503 -1.000778 0.221304
0.141251 -0.108556 0.158374
-0.263954 -0.866539 0.019926
-0.602042 0.124721 -0.019970
-0.480365 0.209723 -0.145021
-0.126322 0.430077 0.100556
0.211755 -0.655503 -0.007804
-0.023704 0.519713 -0.121013
-0.251276 -0.304503 -0.148513
-0.753887 0.183734 0.095753
-0.776314 0.223846 0.054045
-0.042574 0.433502 -0.123730
-0.174302 -0.239735 -0.152842
0.719257 0.219887 0.031337
-0.587030 0.293997 -0.081824
0.382980 0.280100 -0.006811
0.191930 0.134740 -0.145737
-0.843799 0.238484 0.056627
0.191279 -0.634759 0.124906
-0.752991 0.256082 0.042237
0.476932 -0.719233 0.000461
-0.337808 -0.698348 0.102046
0.222008 -0.250563 -0.069574
-0.068510 -0.579733 -0.049043
-0.008564 -0.200180 0.235755
-0.340127 -0.588839 0.143473
0.171452 -0.282492 -0.134768
0.064193 0.191139 0.175786
0.270183 -0.514491 0.019865
0.207739 -0.626378 0.094422
-0.111368 -0.007056 -0.189012
-0.118549 0.286828 0.096852
0.008994 0.038742 0.086710
0.019122 -0.355950 0.225108
-0.857624 0.167787 -0.025980
-0.508887 -0.884734 -0.105403
0.223173 -0.245055 -0.118510
-0.310985 -0.862841 0.043501
0.117987 -0.383992 0.238424
0.085613 -0.507600 0.180174
0.475445 -0.855146 -0.081506
0.791037 0.179134 0.105261
-0.260810 -0.297552 -0.091597
-0.049319 -0.167704 0.231121
0.495281 -0.934840 -0.125341
-0.382628 -0.672253 0.090390
-0.330337 0.139791 -0.120254
0.121209 -0.645416 0.114417
-0.453396 0.123982 -0.001090
0.177892 -0.762070 0.029343
-0.159000 0.095991 -0.118356
0.276864 -0.880703 0.021427
-0.372821 -0.883297 0.050882
0.181611 -0.100093 0.197621
0.600035 -1.058345 0.021792
0.011094 0.477812 0.192762
0.060141 -0.385072 -0.205482
-0.291206 -0.370033 -0.020004
-0.554244 0.152060 -0.071136
-0.610741 -1.052034 0.058366
0.212679 -0.316313 0.066087
-0.411437 -0.648710 -0.072436
0.872067 0.251894 0.046217
-0.277337 -0.311098 -0.085916
0.454391 -0.898190 0.008372
0.117351 -0.307501 0.126422
-0.260132 -0.781758 -0.091876
0.099432 0.019114 -0.157247
-0.471861 -0.683263 -0.061406
-0.128059 -0.339296 0.065530
-0.446832 -1.060033 0.078724
0.936223 0.205528 -0.065737
0.102423 -0.114529 -0.178089
0.786429 0.279801 -0.018312
0.086018 -0.077710 0.170654
0.061939 0.576377 -0.015792
-0.498741 -0.978686 0.039858
0.167121 -0.666528 0.139619
-0.198170 -0.648492 -0.097470
0.134833 0.333671 0.011858
-0.170686 -0.514189 -0.130831
-0.515219 0.202164 -0.042742
0.785530 0.218060 0.071945
-0.112341 0.155707 0.112037
0.048806 0.580161 -0.079869
0.086128 0.447307 0.079415
0.172649 -0.326933 0.178733
-0.343306 -0.826268 0.082345
0.653325 0.261184 -0.006519
-0.302342 -0.626843 0.135385
0.596932 0.284471 -0.067589
-0.026720 0.209007 -0.139472
0.577453 -1.026240 -0.108987
0.212446 -0.769200 -0.001934
0.121233 0.323745 0.066274
-0.362777 -0.700194 0.093553
0.023686 0.427039 -0.095809
0.607726 0.175494 -0.112861
-0.302561 -0.455469 0.136599
-0.788352 0.254561 0.037801
-0.189823 -0.416347 0.181506
0.054022 0.132734 0.114784
-0.201209 -0.088766 -0.110051
-0.473405 -0.843201 -0.143484
0.526786 0.145292 0.002691
-0.228655 -0.507414 -0.184050
-0.680135 0.244411 0.029166
0.403058 -0.967817 -0.109277
-0.385209 -0.793247 0.016538
-0.419663 0.272152 0.032125
0.535947 -1.020158 -0.121219
0.541628 -1.137801 0.040491
0.055052 -0.330421 -0.250716
0.617784 0.149174 -0.005447
-0.383685 -1.070524 0.045923
0.328328 -0.504593 -0.070086
0.226869 -0.452161 0.108286
0.231607 -0.091450 0.048277
-0.606695 -0.983036 0.109875
-0.174211 0.297233 0.088645
0.015699 -0.025349 0.179634
0.070582 -0.129628 -0.237795
-0.005956 0.524134 0.002833
0.189275 -0.586214 0.162247
0.505167 -0.931818 0.066550
0.044259 0.060482 -0.180937
0.368874 0.101566 -0.028562
-0.024704 0.117625 -0.064966
0.167103 -0.695163 -0.028546
-0.716758 0.214272 -0.037783
-0.400222 -1.040633 -0.078670
-0.379505 -0.934950 0.080441
0.404101 -1.012198 -0.050761
0.607400 0.171107 -0.039671
0.594457 -1.029869 -0.069068
0.139958 -0.156829 0.018949
0.568465 -1.091857 0.060592
0.233828 -0.584335 0.157723
0.432714 -1.042757 0.042335
0.336840 -0.458612 0.003879
0.038187 0.590753 -0.077796
-0.575740 -1.074600 -0.089921
-0.054950 -0.526145 -0.074282
-0.012040 0.295497 -0.152495
-0.182661 0.021310 -0.004632
-0.019056 0.283179 -0.096489
-0.389752 -0.624442 0.021665
0.155689 -0.434558 -0.226520
0.081755 0.300977 -0.115086
-0.478824 -0.918222 -0.060667
-0.602510 -1.102670 0.196795
0.079798 -0.331784 -0.163942
0.083086 0.583706 0.013195
0.485956 -0.916396 0.052487
-0.672338 0.225069 0.079799
0.351257 -0.853145 -0.103978
-0.560021 0.267392 -0.014320
-0.142778 0.294581 0.096241
0.473056 -1.168341 0.209548
-0.229161 -0.080094 0.010983
0.308108 -0.535043 -0.112597
-0.366781 -1.053319 0.040386
-0.194257 -0.789108 0.006731
0.032488 -0.452029 0.184809
-0.534962 -0.933482 -0.104315
-0.158791 -0.659200 -0.056794
-0.253790 -0.176232 0.083189
0.482508 -1.121512 0.226068
0.231066 -0.504950 -0.016086
-0.211320 -0.049211 0.150429
0.559104 -1.118422 0.063124
0.161096 -0.221529 0.138759
-0.033767 -0.255006 0.260657
0.125149 -0.423580 -0.172205
-0.018561 0.179798 0.087929
-0.111155 0.122730 -0.142815
-0.415216 -0.661112 -0.093624
0.094510 0.529564 0.022335
0.475222 -0.704445 -0.026932
0.225420 -0.116338 -0.071739
-0.282337 -0.672796 0.090148
-0.287866 -0.584897 0.078567
0.194817 -0.700742 0.092478
-0.106750 -0.361453 0.239547
-0.933296 0.226294 -0.116746
-0.179908 -0.310058 0.099968
-0.780301 0.186613 -0.158642
0.075288 0.592010 -0.030512
-0.291059 -0.872607 0.022048
-0.023625 0.089931 -0.191819
-0.148236 -0.196801 -0.222908
0.740643 0.239458 -0.149511
0.211745 -0.580853 -0.068134
-0.396227 -0.883860 -0.139903
0.475042 -1.072033 -0.084640
0.403692 -0.717734 -0.013822
0.328380 0.272245 0.020127
-0.531054 -1.094788 -0.065539
0.219071 -0.194494 0.131470
0.513969 -0.997695 -0.110689
0.468378 -1.093757 -0.131242
0.087579 0.516511 -0.122118
-0.353853 0.230505 -0.122426
0.653298 -0.996233 0.110615
-0.526441 -0.979440 0.171995
0.244312 -0.689629 -0.018081
-0.010661 -0.185422 -0.215889
-0.208095 -0.000434 0.014179
0.198290 -0.081546 0.180745
0.125692 -0.613551 -0.060805
-0.234106 0.056009 0.033635
-0.194151 -0.256786 0.014740
0.048771 0.378561 -0.126130
-0.353429 -0.999107 -0.019701
0.183842 -0.513637 -0.156058
0.311041 -0.590795 0.027644
-0.241990 -0.029088 0.075308
-0.550689 -1.064657 0.249189
-0.150371 0.304907 0.076424
-0.337420 0.264081 -0.039152
-0.191355 0.181696 -0.121129
-0.259543 0.179516 0.093896
-0.250938 0.178992 0.042216
-0.510096 -1.092774 0.111018
-0.689758 0.184646 0.047402
-0.057991 0.122532 0.151831
0.303826 0.122843 -0.015146
0.505293 -1.000727 0.137357
-0.061556 -0.494901 -0.175037
0.283459 -0.906879 -0.042734
-0.194380 -0.432731 0.116260
0.160962 0.001937 -0.114907
-0.325991 0.150801 -0.004755
-0.513069 -1.135998 -0.051167
-0.527555 -1.042605 0.037567
-0.167241 -0.710252 0.005689
-0.048047 0.541422 0.092282
0.875777 0.271770 0.055747
0.163330 0.179785 -0.099848
-0.108797 -0.522227 -0.121543
0.129088 -0.615289 0.081073
0.351282 0.311192 -0.082714
-0.062752 0.203456 0.122286
-0.028755 -0.518373 -0.057019
0.209240 0.014033 -0.122526
0.084927 -0.470563 0.170499
0.560877 -1.060969 0.063211
-0.162906 -0.382549 -0.238856
0.107022 -0.581165 -0.001075
0.102495 -0.411985 0.179644
0.038692 -0.510290 0.121896
0.085250 0.132298 0.171938
0.439298 -1.022721 -0.144081
0.437599 0.158366 -0.076970
0.033662 0.608948 0.066143
0.240490 -0.700692 -0.107147
-0.307681 -0.888040 -0.000477
-0.133869 0.222118 0.128789
-0.165885 -0.081805 -0.024658
-0.606982 -1.117021 0.114034
-0.175682 0.230548 -0.094626
-0.013028 0.181296 0.189368
-0.822488 0.272795 -0.122385
0.283773 -0.408923 -0.068072
0.109759 -0.549385 0.166633
-0.455580 -0.887790 -0.082912
-0.049648 0.480952 0.127268
0.210583 -0.772440 0.038046
-0.539174 -0.940519 0.019113
0.229119 -0.329841 0.131683
0.248379 0.065564 0.046672
-0.782951 0.177817 -0.065007
0.475817 -1.162839 0.114804
0.010019 0.540166 0.057036
-0.252326 0.110916 0.085657
-0.467628 -0.982052 0.095768
-0.329599 -0.962234 0.013492
0.022975 0.055518 0.222711
0.442707 -0.891391 0.039518
-0.166985 -0.043683 0.119089
0.460458 0.177647 0.047627
-0.428412 -0.767943 0.013275
-0.138551 -0.298067 -0.115612
0.538911 -1.035098 -0.141161
-0.464930 -1.036349 -0.076894
0.066940 -0.119854 0.206206
-0.394649 -1.050811 0.096571
-0.004941 0.379975 0.157312
0.805120 0.270781 -0.051471
0.450298 0.185017 -0.015270
-0.040614 0.519210 0.048726
0.196865 0.139384 -0.100623
0.376716 -0.892897 -0.106090
0.135483 -0.141692 -0.060311
0.046951 0.299065 -0.145521
0.527206 0.214677 -0.117012
0.724238 0.316689 -0.071790
0.217524 -0.048247 -0.062860
0.546585 0.174213 -0.084709
0.333083 -0.700385 0.002502
-0.592680 -1.009216 -0.073796
0.526424 -0.861636 -0.038116
-0.201799 -0.023350 0.115809
0.230614 -0.073779 -0.060001
0.215902 -0.353384 0.121408
-0.001506 -0.430596 0.052480
-0.135044 0.374778 0.004007
0.000434 -0.094259 0.205058
0.489944 -0.883129 -0.009154
0.592480 -0.997276 0.193500
0.505699 -1.015780 0.171031
0.513366 0.164243 0.042186
-0.360783 0.181827 -0.112153
-0.042034 0.593267 0.117282
-0.191745 -0.136642 0.003082
0.477903 -0.910276 -0.142571
0.428582 -0.710719 -0.135379
-0.032177 -0.401881 0.162785
