ply
format ascii 1.0
comment ply file 
element vertex 1668
property float x
property float y
property float z
end_header
-0.099902 -0.389386 -0.074351
-0.146187 -0.568430 0.098936
-0.173781 -0.295963 0.144237
-0.187576 -0.071661 0.086986
0.265744 -0.454164 0.099899
-0.101747 0.053682 0.002703
0.375975 0.220925 0.008017
0.146829 0.147046 -0.099094
-0.215241 0.178940 -0.072395
-0.143293 -0.361564 -0.012365
-0.336456 0.197639 -0.029049
0.593423 0.209270 -0.055484
-0.122339 -0.212724 0.026750
0.423105 -0.930161 0.001808
-0.102087 -0.372041 -0.063205
0.116270 0.039489 -0.143047
0.181291 -0.423170 -0.049163
-0.034399 0.028617 0.013683
-0.084849 -0.337587 0.020971
0.233688 -0.445467 0.182542
0.236556 0.067247 -0.002170
-0.493778 0.214356 -0.003624
0.054486 -0.421476 -0.081785
0.351903 -0.898109 -0.030741
0.003160 -0.180141 0.023633
0.191681 -0.330165 -0.074548
0.267863 -0.768486 -0.061377
0.143869 0.278600 -0.097028
-0.153015 -0.171108 -0.057134
0.400482 -0.754312 -0.034782
0.100505 -0.023079 -0.019173
-0.170432 -0.355535 -0.026890
0.465692 -0.795442 -0.114198
0.359979 -0.654065 -0.062119
-0.159540 0.123350 -0.055702
-0.065237 -0.473072 -0.032459
0.048039 0.140017 0.049832
0.400601 -0.867519 -0.036120
-0.187535 -0.042900 -0.004081
-0.159524 -0.033528 -0.076670
0.480031 -0.909960 -0.127355
0.455026 -1.046150 0.181164
0.066420 -0.370872 -0.030596
-0.218108 -0.518294 0.071869
-0.017310 -0.056929 -0.017832
-0.390114 -0.680645 -0.134527
-0.024076 -0.403110 0.105004
0.272258 -0.550293 0.037417
-0.257309 -0.532459 0.017467
-0.157836 -0.293705 0.104312
-0.050104 0.202440 -0.092655
0.059892 0.160527 0.027238
0.429612 -0.835878 0.071882
-0.252659 -0.806968 -0.059273
-0.368729 0.174461 -0.115822
0.198132 -0.496785 0.098681
0.278138 -0.723742 0.106726
-0.014874 -0.133789 0.117203
0.020303 -0.230102 0.050453
-0.001251 -0.411602 0.004448
-0.598255 -1.093866 -0.002519
-0.104534 0.126986 -0.013499
-0.057160 -0.173308 -0.159974
-0.519219 -0.894106 -0.045993
0.802358 0.150786 -0.135013
0.131610 0.164879 -0.081775
0.155295 -0.411960 -0.086821
0.168675 0.066691 0.076777
0.204836 -0.535300 -0.000633
0.024238 -0.480556 -0.177571
-0.440110 -0.904847 -0.031804
-0.139981 -0.467856 0.057357
0.445875 -1.025395 0.087144
0.170294 -0.240486 0.047406
-0.222085 0.311126 0.057068
-0.544602 0.208797 0.024426
-0.107174 -0.250220 0.033303
-0.186396 -0.154304 0.043165
0.101739 0.033049 0.067397
-0.129628 -0.182913 -0.083751
-0.002393 -0.454543 -0.078711
-0.111135 -0.387630 -0.010057
0.038339 -0.042250 0.111237
-0.139327 -0.472264 -0.047490
0.409804 0.223935 0.016127
0.010967 -0.050652 0.139259
-0.107747 -0.450463 -0.085142
0.047455 0.448636 0.103400
0.167353 0.065995 -0.056299
0.180327 0.248025 0.012601
0.131540 -0.322455 -0.000180
0.128135 -0.392163 -0.178313
0.319864 -0.816751 0.081184
0.314385 -0.659169 -0.095017
-0.334873 -0.695483 -0.008904
-0.241505 0.340833 0.019824
-0.154604 -0.156962 0.092221
0.448867 -1.085440 -0.018724
0.038890 -0.060629 0.077895
0.136602 -0.369475 0.108387
0.163159 -0.181616 0.037750
0.511865 -1.005753 -0.049120
0.229896 0.106912 0.076632
-0.018652 -0.322074 0.243743
-0.024311 0.073431 0.022396
-0.180622 -0.578949 0.019843
0.147704 -0.285983 0.055457
-0.287904 -0.560825 0.058092
0.182120 0.050946 0.165424
-0.421873 -0.884666 0.028935
-0.330487 -0.621780 0.046037
0.256529 -0.535023 0.121749
0.097123 -0.395599 -0.074109
-0.171161 -0.408844 0.079974
0.000678 0.377025 0.121102
-0.548236 -1.116352 0.010685
0.126451 -0.146915 0.083798
0.735637 0.169873 -0.019681
0.155723 0.225420 -0.034493
0.207012 -0.450190 -0.118633
0.182053 -0.423205 -0.186561
0.052794 0.148710 -0.040517
-0.454578 0.157738 -0.064563
-0.083738 0.029058 0.045634
-0.126597 -0.374423 0.026627
-0.267401 -0.347444 0.041294
0.386110 -0.741562 0.001133
0.160746 0.162750 0.069249
-0.599689 0.189087 0.019985
-0.448503 -0.784352 -0.120234
0.003409 0.203494 -0.045579
0.029608 -0.118771 0.063895
0.327000 -0.519689 0.063205
-0.023548 -0.120033 0.099533
-0.228100 0.140386 0.024714
-0.775563 0.257109 -0.067845
0.477009 -1.084965 0.114425
-0.195076 -0.151119 0.173700
0.096864 -0.040942 -0.164167
0.008244 0.047777 -0.056094
-0.574183 0.219589 -0.058081
0.614280 0.174738 0.000677
-0.059552 0.178485 0.103406
-0.020336 0.494168 0.077856
0.147705 0.267606 -0.022124
0.116063 0.278350 -0.062883
-0.028573 0.279099 -0.081329
-0.108455 -0.388953 -0.178020
-0.223272 -0.764337 -0.012471
-0.021377 -0.327025 0.121893
-0.265431 -0.374635 -0.102075
-0.019965 -0.284513 -0.114025
-0.014622 -0.043286 0.055781
-0.250967 -0.662884 -0.064685
0.111462 0.214467 -0.094644
-0.274247 0.254610 0.000948
-0.015661 -0.116707 -0.098995
-0.366827 -0.685858 0.012108
-0.076938 -0.467958 0.043643
-0.196021 -0.075780 0.037953
-0.041180 -0.293056 0.076112
0.002074 -0.425008 -0.003753
-0.067994 -0.101679 0.011009
0.494819 -1.051147 0.154438
0.017163 -0.474108 -0.090282
0.199459 -0.549882 0.001386
-0.164168 -0.428279 -0.151557
-0.190631 0.126564 -0.043865
0.282208 -0.459335 -0.133153
0.297191 -0.745766 0.097702
-0.827578 0.220186 -0.113278
-0.032370 0.189332 -0.089256
-0.084087 0.268064 -0.029848
0.284061 -0.621098 -0.102714
-0.177268 0.183688 0.052542
-0.105583 -0.143103 0.062711
-0.114757 -0.253155 -0.241167
0.500111 -1.009032 -0.102851
0.240355 -0.508371 0.020168
0.104076 -0.474312 0.027942
0.058640 -0.342563 -0.148269
0.052551 -0.373833 -0.029689
0.208174 -0.366014 0.035505
0.097656 0.003579 -0.020271
-0.209397 0.061400 0.049069
0.084717 0.023451 -0.196500
-0.049401 0.347060 0.004852
0.094591 -0.115089 0.129373
-0.049366 0.133756 -0.154451
-0.185850 -0.358925 0.101122
-0.174600 -0.259027 0.000045
-0.157309 0.111927 -0.019159
0.170178 -0.137602 0.059303
-0.150343 0.118257 -0.049769
-0.209794 -0.083092 0.103669
0.054677 -0.045487 -0.005010
0.036117 -0.490515 0.055853
-0.406176 -0.708829 0.043810
0.330472 -0.895525 -0.007728
0.036716 -0.012447 -0.042682
-0.047485 -0.259371 -0.074329
-0.009834 -0.168137 0.122152
0.268982 -0.521261 -0.063220
0.320435 0.201954 -0.019874
-0.413364 -0.993463 -0.016147
-0.107589 -0.353518 -0.064385
-0.223723 -0.448993 -0.055182
-0.694354 0.171055 -0.058596
0.088619 -0.125806 -0.035275
-0.007097 0.083416 -0.114510
-0.061004 0.172216 -0.126971
0.255341 -0.562537 -0.016880
-0.075194 0.024225 0.128842
0.096172 -0.300485 -0.114634
0.421061 -1.006633 -0.014271
-0.125480 -0.303506 -0.147248
-0.009890 -0.165987 0.205686
-0.085660 -0.126836 -0.120753
0.036061 -0.163895 -0.129131
0.888467 0.214646 0.004954
-0.486793 -1.046313 -0.038757
-0.262286 -0.337166 0.077525
-0.077236 -0.048581 0.162352
-0.058224 -0.054234 -0.036432
-0.130430 -0.394951 0.135116
0.483802 -0.978800 -0.037860
0.126524 -0.033808 -0.056127
0.078230 0.173017 -0.026517
0.331052 -0.923087 -0.049740
-0.047819 -0.126731 0.031115
-0.287764 -0.814768 -0.144256
-0.049928 0.183143 0.140217
0.144458 -0.411429 0.063258
0.518050 -0.994210 -0.026229
0.231501 -0.468587 -0.049669
-0.097700 -0.325770 0.091089
0.167134 -0.010314 -0.029491
-0.011861 -0.257162 0.092046
0.178460 -0.313550 -0.078860
0.018856 0.152975 -0.094003
-0.134289 0.053393 -0.067198
-0.268120 -0.771939 -0.139191
0.787707 0.164000 -0.036119
0.522667 -1.147224 0.221368
0.614699 0.180642 -0.011224
-0.441937 -0.822792 -0.074426
0.357378 -0.840455 -0.042905
0.063441 -0.018216 0.054588
-0.091485 0.336414 0.036754
-0.049133 -0.359791 -0.005478
-0.259268 -0.426712 -0.001188
0.203784 0.144061 -0.003063
0.189529 -0.056793 -0.053018
-0.070784 0.281207 -0.048632
0.580585 0.174853 -0.029097
0.032757 -0.065459 -0.181345
-0.031685 0.138552 -0.150555
0.044550 -0.046301 -0.061862
-0.000325 0.488579 0.022717
-0.361602 -0.667731 -0.054887
0.197061 -0.283374 -0.091292
0.051209 -0.125669 0.151801
0.441030 -0.953482 -0.078212
-0.167109 0.032304 -0.129554
-0.041741 -0.050305 -0.019204
-0.200821 -0.402935 0.150763
0.112086 0.471729 0.033716
0.038847 0.529575 0.048808
-0.198686 -0.373377 -0.059226
0.042333 -0.119232 -0.101680
-0.827493 0.236599 -0.012727
-0.243036 -0.564701 0.030493
-0.187445 -0.122630 0.022295
0.249403 0.088232 0.025908
-0.318263 0.188256 -0.056976
0.010112 0.072742 0.213406
-0.168894 -0.240751 -0.016501
0.680643 0.276264 -0.062261
0.019022 0.573728 -0.048822
0.102185 -0.202553 0.016570
-0.415999 -0.730270 0.005270
0.079364 -0.056851 -0.074092
0.136011 -0.541944 -0.001148
0.047252 -0.254814 0.245076
0.116392 0.326048 0.020672
0.091470 -0.372893 -0.207215
0.352293 -0.643917 -0.039588
0.276655 -0.585726 -0.089370
0.103684 -0.362286 0.119040
0.327285 -0.775228 0.083757
-0.219150 -0.378179 0.059531
-0.046720 -0.212099 -0.194638
0.177619 -0.309286 -0.100805
0.247781 -0.534822 -0.109369
-0.016860 0.059880 0.074201
0.144018 -0.060405 0.107607
-0.033616 0.271347 -0.063547
0.078001 -0.470230 -0.075711
-0.214705 -0.663256 0.051950
0.039580 0.122648 -0.074876
0.173845 -0.091862 0.091223
0.555914 -1.010862 -0.126213
0.183876 -0.425782 -0.081789
-0.007556 0.114368 -0.092161
-0.346465 -0.786207 0.008462
-0.293420 -0.844408 0.087206
-0.052997 -0.103900 0.168371
0.206258 -0.375441 0.051109
-0.106904 0.366921 0.043776
-0.196642 -0.680229 -0.018256
0.349386 -0.791380 -0.103609
-0.018369 -0.109505 -0.162875
-0.201106 -0.235763 0.012565
-0.330151 -0.662905 0.052225
-0.057506 -0.130198 0.125075
-0.069250 0.044228 0.027956
-0.113578 -0.358079 0.153114
0.142107 -0.116921 0.052461
-0.163116 -0.227524 -0.193674
0.175358 0.171841 0.028777
0.242862 0.090298 0.065094
0.106445 -0.128178 0.049142
-0.234028 -0.757851 -0.092139
-0.006577 -0.423974 -0.014832
-0.014454 -0.273220 0.134579
-0.446059 -0.755622 -0.073351
0.678716 0.186298 -0.093525
-0.015570 -0.210214 0.224764
-0.344868 0.166891 -0.023928
0.094757 -0.202079 -0.120454
0.106471 -0.047703 0.038810
-0.554366 -1.085851 0.016441
-0.078224 0.081402 0.042581
-0.093457 -0.169396 0.153441
-0.088665 -0.336914 -0.103976
0.125833 -0.552377 -0.005970
0.039247 -0.384959 -0.037561
-0.043661 0.129432 -0.165805
-0.238043 -0.529836 0.099873
-0.496537 -1.097826 0.103065
0.400887 -0.780133 -0.096979
-0.316231 -0.648919 -0.106142
-0.091477 -0.263725 -0.009501
0.143241 -0.374572 -0.140757
0.018610 -0.216005 0.044972
-0.049294 0.216714 0.032252
0.127534 -0.345253 -0.100083
0.187165 0.264828 0.016785
0.076501 -0.132487 0.117922
-0.047229 -0.314649 0.189537
-0.062974 -0.251906 -0.085920
0.643288 0.196021 -0.038374
0.508035 -1.051848 0.038823
0.039706 0.520355 0.005765
0.008605 0.286869 -0.014771
-0.594331 -1.003254 0.042834
-0.141381 -0.393390 0.145373
-0.185405 -0.014970 0.001366
0.403803 -0.928341 0.026475
0.406040 -0.751527 -0.090224
0.604915 0.244302 0.015784
0.347174 -0.719661 -0.083172
-0.032530 -0.295542 -0.108934
0.286424 -0.691206 0.147349
-0.308118 0.246782 -0.020943
0.109746 -0.177386 0.033369
0.030715 0.072086 -0.016441
-0.454930 -0.723153 -0.006031
0.100716 -0.242941 0.110771
-0.381482 -0.645714 0.014982
-0.016519 0.049365 0.151264
0.922517 0.210293 -0.148528
0.277420 0.187134 -0.116228
-0.163555 0.050712 -0.068506
0.106671 -0.330871 -0.200032
-0.910151 0.199762 -0.129817
-0.221592 -0.471900 0.035799
0.354898 -0.832559 -0.117089
-0.107365 -0.414232 0.101855
-0.047792 -0.450084 -0.188246
-0.060763 0.172278 -0.031798
0.315859 -0.799129 0.043340
0.003221 -0.453317 0.033126
-0.118148 -0.189739 0.030586
0.192305 0.241658 0.030730
-0.853439 0.195400 0.042293
-0.585530 0.238078 -0.032098
0.083844 0.476694 0.069688
0.263136 0.233330 0.021146
0.227132 -0.048867 0.054620
0.015420 -0.169999 0.134677
0.046742 0.034679 -0.126241
0.263196 -0.298099 0.102747
0.536337 0.269027 -0.007336
-0.154334 -0.354208 -0.089646
-0.408809 -0.988678 0.023921
0.167566 -0.338413 -0.142546
-0.237593 -0.578649 0.031210
-0.145366 0.124488 0.069159
-0.054365 -0.050409 0.110022
0.134363 -0.281870 -0.212675
0.400379 -0.907992 -0.056308
-0.204603 -0.477876 -0.114828
0.806697 0.186706 -0.111164
0.279196 0.161329 0.008698
-0.049873 0.255459 -0.103971
0.124916 -0.452726 -0.138977
0.257964 0.245064 -0.074903
-0.129783 0.002693 -0.005064
-0.098709 0.337054 0.011027
-0.165034 -0.057784 -0.004331
0.031980 0.306794 -0.017287
0.148719 0.252216 -0.091578
0.053837 0.106217 -0.050182
0.096533 0.164917 -0.025549
-0.060903 0.453647 -0.034916
0.596971 0.202612 0.002017
-0.102121 0.241605 -0.065246
-0.231829 0.121134 -0.071843
0.399154 -0.704546 0.024797
0.467092 -0.880679 -0.056258
-0.106042 0.086914 -0.057930
0.299600 -0.646944 0.042876
-0.496817 0.241671 -0.027129
-0.166736 -0.050030 -0.057961
-0.422654 0.189116 -0.041468
-0.062974 0.277379 -0.037567
0.208041 -0.162398 -0.050182
-0.360795 0.270156 0.025088
-0.153799 0.192322 0.014383
0.392396 -0.669286 0.046283
-0.039598 0.029286 0.180771
-0.102380 0.489096 0.024923
0.139239 0.046764 -0.031912
0.021012 0.369268 0.026275
-0.057478 0.032149 -0.125508
-0.513040 -1.162259 0.020700
0.112005 -0.176789 0.001755
-0.006530 -0.455326 -0.092988
0.410667 -1.074398 0.057216
0.463945 -1.038070 -0.037626
-0.035960 0.310425 -0.067087
-0.062906 -0.386333 -0.018361
0.202286 -0.359438 0.045749
0.084216 0.520392 0.123964
-0.070426 0.252392 -0.151383
-0.251590 -0.600555 0.068538
0.007765 0.098006 -0.018104
-0.392898 0.222255 -0.048985
-0.164433 0.136392 0.023953
0.018754 0.217173 -0.050646
-0.287364 -0.650732 -0.002376
0.116880 0.238885 -0.005496
-0.272526 0.187597 -0.076457
0.240951 0.260761 -0.044166
0.002004 0.015408 0.099996
-0.231915 -0.003733 0.003686
-0.158260 0.007717 0.063887
0.096523 -0.165822 -0.240214
-0.068104 0.062887 -0.170988
0.017553 -0.213769 0.191174
-0.180410 -0.021157 0.052365
-0.011113 -0.121643 -0.116070
-0.045328 0.396229 0.059742
-0.020061 0.157386 -0.002804
-0.027159 -0.199494 0.000701
-0.040961 -0.128026 -0.011012
-0.117223 -0.456051 -0.204227
-0.015470 0.176878 -0.115049
0.110063 -0.337280 -0.075507
0.574115 0.221053 -0.024804
-0.278207 -0.581886 0.009387
-0.111360 -0.358004 -0.037071
-0.005103 -0.018839 -0.034594
0.010553 -0.468522 0.091665
0.168730 0.062754 0.123370
-0.487073 -0.880371 -0.025387
0.199968 -0.561935 0.039837
-0.217793 -0.619208 -0.017721
0.185891 -0.371405 0.040548
-0.366441 -0.634167 -0.051292
0.389948 -0.749664 0.072566
0.110414 0.190036 -0.154923
-0.108168 -0.340574 -0.109255
0.006538 -0.332656 0.034348
-0.069513 0.091483 -0.169140
-0.158807 0.063625 -0.043000
0.106159 0.303014 -0.035835
0.167590 -0.468184 0.044257
0.181283 -0.441189 0.037534
0.039291 -0.023563 -0.050417
-0.359319 -0.797877 0.008601
0.071507 0.438785 0.045703
-0.049457 -0.167082 0.087905
0.303391 -0.396894 -0.003291
0.015750 0.340047 0.152237
-0.071739 0.462614 -0.006123
0.085786 -0.252982 0.140977
-0.056756 -0.086533 0.169973
0.299251 0.245484 0.021860
-0.044953 -0.127194 0.001822
-0.052148 0.173812 0.133307
0.016833 0.360270 -0.066887
-0.559177 0.122032 -0.044318
0.084370 -0.137222 -0.040598
0.045690 0.138406 -0.065995
0.138574 -0.409257 0.015119
-0.210064 -0.378675 -0.170476
-0.220009 0.202483 -0.056940
-0.008068 -0.321267 0.181622
0.041401 0.468267 -0.015146
0.107113 -0.208218 -0.070580
0.245557 -0.419161 -0.029355
0.060531 0.166388 0.012711
0.276922 0.158824 -0.061980
-0.003543 -0.142170 0.095554
-0.028895 -0.279427 -0.181813
-0.124054 -0.115479 0.116933
0.005828 -0.338098 -0.199008
-0.105398 0.342276 0.122457
-0.050388 -0.136396 0.114363
-0.525175 -1.080996 0.147599
-0.144400 -0.353183 -0.106896
-0.200453 -0.484369 0.089441
-0.112211 -0.472300 -0.019011
-0.511687 -1.016710 -0.099932
0.179542 -0.275059 0.112243
0.137598 -0.163107 -0.008327
0.004658 -0.157607 -0.225893
-0.059240 -0.442147 -0.107997
-0.040206 -0.294691 -0.094108
-0.346805 -0.675653 -0.036782
-0.180764 0.334874 0.026046
0.041003 -0.032622 -0.177042
0.058163 -0.046420 -0.086925
0.232974 0.104479 -0.093904
0.491863 -0.994318 -0.012721
-0.046416 0.231783 0.039889
-0.102433 -0.329086 -0.098474
-0.158325 -0.432416 -0.072538
0.269217 -0.582367 -0.021516
0.272202 -0.029338 0.015969
0.097448 -0.015820 0.075631
0.275099 -0.585407 -0.030192
-0.075641 -0.367235 -0.142410
0.132069 -0.309357 -0.140412
0.156752 0.099769 0.098131
0.133441 -0.352345 -0.119660
-0.144941 0.180631 -0.026485
-0.066250 -0.369786 -0.038187
-0.548213 -0.990619 0.028041
0.082851 -0.333711 -0.223429
-0.263554 -0.794927 -0.065080
-0.097044 0.049150 0.055940
0.204359 0.012056 -0.041585
0.601088 0.170490 0.003128
-0.463508 -1.024693 0.050354
-0.397983 0.184552 -0.073912
-0.167641 -0.424707 0.067628
-0.158904 -0.248312 -0.000180
-0.149779 0.076147 0.010134
-0.173110 -0.454776 -0.015648
-0.127472 0.212496 0.106600
-0.237652 -0.862032 0.015014
0.783168 0.179638 -0.100485
0.129717 0.478478 -0.010979
-0.128401 -0.073151 0.074009
-0.516360 0.268012 -0.105425
-0.235395 0.112608 0.030026
-0.125134 -0.016161 -0.064384
-0.095827 -0.522869 0.049058
-0.126057 0.099382 -0.021102
-0.129052 0.070412 -0.023232
0.168561 -0.248536 -0.116087
0.216273 -0.577270 -0.057545
0.490297 0.223056 -0.001031
0.098493 -0.276816 0.123935
0.028807 0.112727 -0.119503
0.283484 -0.541340 0.035336
-0.444426 0.256843 0.012138
0.360032 0.188021 -0.028679
-0.179966 -0.505086 -0.046184
-0.208213 -0.207952 -0.017317
-0.047034 -0.310984 -0.075017
-0.462154 -1.008841 -0.032747
-0.027510 0.010970 -0.184304
-0.319657 -0.470530 0.042654
0.123101 -0.311591 -0.220211
-0.321319 -0.673036 -0.013953
0.482500 -0.901042 -0.053538
-0.036269 -0.293124 0.098566
-0.028385 0.377299 0.058089
-0.229269 -0.720053 -0.041331
0.117535 -0.126944 0.019508
0.134869 -0.497222 0.083751
-0.127453 -0.442729 -0.137104
-0.187020 -0.210981 -0.136360
-0.054091 0.270019 -0.112856
-0.108853 0.465706 -0.059950
0.113860 -0.354147 0.057997
0.173281 -0.179315 0.021063
-0.350972 -0.688569 -0.002827
-0.317226 0.263435 -0.050359
-0.209713 -0.584717 -0.113414
0.114112 -0.422865 -0.132591
-0.437277 -1.064701 0.042822
0.376368 -0.998873 -0.007689
-0.130093 -0.343499 0.043340
0.079533 0.184360 -0.034039
-0.117903 -0.349294 -0.061280
0.433771 -1.052443 -0.034958
-0.229888 0.074851 -0.117581
0.122325 -0.183751 0.100905
-0.068358 0.148608 -0.090468
0.140431 -0.180156 -0.041203
-0.261717 -0.356616 0.097534
0.759121 0.172756 -0.029169
-0.200402 -0.362324 0.175519
0.051644 0.219605 0.006160
-0.275685 -0.833294 -0.087443
0.088255 0.043748 -0.100102
0.183375 0.237414 -0.025789
0.327692 -0.565301 0.011150
-0.163768 -0.432533 -0.112397
0.579738 -1.017288 -0.030370
0.094799 -0.182675 -0.212828
0.597835 0.193713 0.018949
-0.169387 -0.147421 -0.003851
-0.175220 -0.375865 -0.091827
0.104934 -0.330668 -0.096891
0.425992 -0.996807 0.008712
0.275684 -0.507803 -0.056616
0.161677 -0.067555 -0.059812
0.391050 0.137716 -0.075318
0.080556 -0.272337 -0.158272
-0.025695 -0.237794 0.107952
-0.227657 -0.265086 0.030040
0.157550 0.194490 -0.008500
0.006384 0.173276 -0.011171
0.096770 0.553710 0.007874
-0.038323 -0.433428 0.025344
-0.656527 0.269020 0.004511
-0.092254 -0.104475 0.024830
-0.223016 -0.419969 -0.120371
-0.223774 0.244802 0.054556
0.078191 -0.238666 0.168587
0.085779 -0.300599 0.149175
0.446828 -1.105948 0.072033
-0.069348 0.287115 0.017169
0.114043 -0.457159 0.098544
0.107081 -0.160609 -0.020366
-0.068662 0.276029 0.022637
0.008261 0.114251 -0.057871
0.486522 0.127481 -0.045473
-0.028712 -0.190244 -0.027307
0.795733 0.277445 -0.056572
0.014456 -0.035073 0.074520
0.025360 -0.056040 -0.092945
-0.179637 -0.443709 -0.044608
-0.094233 0.328853 0.022471
0.445722 -1.066417 0.116860
0.015393 0.114707 0.141006
-0.095759 -0.293358 0.154752
0.908243 0.206038 -0.077176
-0.109421 0.273138 -0.084271
-0.098576 -0.113628 0.148521
0.045182 0.266238 -0.057823
0.121124 0.010550 0.075945
-0.533167 -1.019945 0.087333
0.080197 -0.492619 -0.094973
0.295480 -0.363291 0.002817
0.231909 -0.760946 -0.038477
-0.186490 -0.537347 0.018842
0.214482 0.129006 0.071867
-0.233107 -0.694884 -0.014117
0.009903 -0.127961 -0.068961
0.291565 -0.476005 0.130847
-0.148524 -0.504245 0.090501
-0.096138 -0.457441 -0.098641
-0.151170 -0.290521 -0.126958
0.059730 0.246996 -0.068713
0.142286 0.213380 0.013083
0.200667 -0.102112 0.184347
0.342690 -0.667834 0.043106
0.078750 -0.427115 -0.032914
0.063075 -0.468401 0.103015
-0.130879 0.176628 -0.147535
-0.075530 -0.316889 0.194528
0.060877 -0.336680 -0.207583
-0.058879 -0.437895 0.083348
-0.320321 -0.612568 -0.070023
-0.089678 0.233617 -0.172470
0.142061 -0.503886 -0.051145
0.344048 -0.701447 0.012659
0.330935 -0.769496 0.011181
-0.123095 -0.137201 0.119462
0.000621 -0.159721 -0.123905
-0.636574 -1.036343 0.003472
0.750265 0.170693 -0.017362
-0.233483 -0.292584 0.138492
-0.219567 0.087317 -0.007281
0.055534 -0.323831 -0.161795
0.299514 0.198321 -0.021722
0.105398 -0.271586 -0.073543
-0.284867 -0.633205 0.078839
-0.060285 0.196801 0.140599
-0.035065 -0.011188 -0.097423
0.156004 -0.281443 -0.026518
-0.038301 -0.218952 -0.196719
0.216162 -0.396702 0.067541
-0.013863 -0.223515 -0.044718
0.109728 -0.197957 0.194917
-0.058918 -0.375018 0.162987
-0.596943 0.213925 -0.128209
-0.609778 0.146031 -0.076008
-0.113518 -0.401174 -0.003971
-0.081093 -0.333549 0.065201
0.042941 0.395675 -0.027087
-0.575750 -1.083155 -0.098005
-0.165833 -0.231138 0.148410
0.035998 -0.434357 -0.122029
-0.422746 -0.752248 0.102214
-0.069760 -0.440047 0.065419
0.186812 -0.075080 0.014671
0.270358 -0.640074 -0.088397
-0.093992 -0.084684 0.038090
-0.187394 -0.501486 -0.057094
0.231625 0.033461 -0.038104
0.114068 0.461682 -0.005411
-0.086099 -0.285923 -0.013423
-0.100304 -0.473532 -0.054910
0.063722 -0.425646 0.119394
0.146806 0.164374 0.091716
0.061634 -0.380036 -0.166714
-0.056690 -0.101577 0.039111
0.072668 -0.458594 0.120887
-0.194994 -0.420461 -0.013762
0.055762 -0.357293 0.035518
0.092851 0.497922 -0.079891
-0.551012 -1.048610 0.011075
-0.843149 0.197908 0.049142
-0.055953 -0.152904 0.105842
-0.012469 0.388999 0.106665
0.066002 0.424784 -0.086681
-0.208343 -0.673072 0.082908
0.176351 -0.447670 0.057914
0.093196 -0.475211 0.154664
0.350282 -0.642502 0.028553
-0.858096 0.217739 0.020360
-0.111810 -0.070361 -0.005905
0.206903 -0.441053 -0.134832
-0.277298 -0.639080 -0.056912
-0.135639 0.154971 0.028426
0.107708 -0.570883 -0.002208
-0.911087 0.292662 -0.054554
-0.462642 -1.038952 0.063472
0.469406 -1.134335 0.179235
0.078460 0.419799 0.045614
-0.032735 -0.143314 0.108898
-0.003367 -0.150818 -0.111970
-0.297039 0.252482 0.006789
-0.359947 -0.961299 -0.028604
0.214654 0.048113 -0.076414
0.006557 0.014907 0.070745
-0.141722 -0.002798 -0.002141
-0.135189 0.333386 -0.038809
0.226655 0.094072 -0.007276
-0.073836 -0.134341 0.082847
-0.056379 0.009308 -0.099365
0.144099 -0.513487 0.002297
0.167136 -0.453721 0.047868
0.149802 -0.130382 -0.103815
-0.050580 -0.308496 0.029442
-0.008050 0.116792 -0.141239
0.213208 -0.123065 -0.015108
0.418315 -0.976814 -0.036497
0.158302 -0.346454 -0.101515
-0.473712 -0.940914 -0.151129
-0.258007 -0.539552 0.134009
0.077288 -0.063906 -0.132459
0.061882 -0.484355 0.121024
-0.224566 -0.195439 0.005442
-0.600754 0.255111 -0.047846
-0.038532 0.237767 -0.073426
0.571424 0.166412 -0.034960
0.091738 -0.034928 0.132593
0.154445 -0.195454 0.043665
-0.289660 -0.688194 -0.061865
-0.071654 -0.146562 -0.095231
0.023444 -0.412902 -0.022266
0.037769 -0.520553 -0.012271
-0.630777 0.237141 0.015271
0.425623 -1.108301 0.082252
-0.047820 -0.338993 0.199828
-0.229722 0.146771 -0.016805
-0.102878 -0.126505 -0.148299
0.008231 0.507184 -0.085419
-0.015295 -0.236251 -0.104960
-0.504471 -1.012593 -0.053072
0.422427 0.200384 -0.125169
0.494048 0.152741 -0.072627
-0.088413 -0.069470 0.052863
-0.474541 -1.131717 0.146014
0.796380 0.240889 -0.008554
0.020090 0.408608 0.038136
0.581392 -1.040781 -0.104295
-0.130165 -0.283500 0.149638
0.124669 -0.506198 0.144130
0.161906 -0.323417 -0.123741
0.257124 -0.359649 -0.007350
-0.164855 0.014242 0.123735
0.038157 -0.020481 -0.118596
-0.112505 0.087784 -0.008899
0.221138 -0.500054 0.155384
0.102023 -0.527609 -0.023512
-0.068541 -0.161153 -0.080268
-0.174829 0.240407 -0.000552
-0.069462 -0.326514 0.124320
0.022956 0.000347 -0.145432
-0.335862 -0.453013 0.043319
-0.004626 0.500209 -0.017539
0.211395 -0.631405 0.005152
-0.013694 -0.139019 -0.117240
-0.069758 -0.262065 0.150496
0.200083 -0.590421 0.077366
0.040862 0.190219 0.046724
0.209549 -0.594802 -0.022487
-0.011140 0.588602 -0.003002
-0.028284 -0.182900 -0.000550
0.497641 -0.920276 -0.093581
0.007304 -0.206875 0.079139
-0.932260 0.257108 0.026810
0.002223 0.180287 -0.074352
-0.010755 0.294179 -0.021724
-0.371874 -0.837987 -0.090390
0.114218 0.311157 0.019945
0.014688 -0.138583 0.050904
-0.103275 -0.146303 -0.143563
-0.166854 0.155590 -0.010601
-0.106081 -0.277814 -0.201383
-0.085272 -0.431919 0.087621
0.603978 0.163709 -0.011343
0.162526 -0.355846 -0.140997
0.022472 -0.019784 0.133781
-0.420136 -0.881488 0.058497
0.359766 -0.633951 0.023683
0.152607 -0.441681 0.035346
0.041641 -0.204206 -0.097968
0.032360 -0.088185 0.104835
0.226707 0.236091 -0.047124
0.218779 -0.405138 0.077559
-0.249703 0.235241 -0.021560
0.433584 0.142478 0.042456
0.364658 0.231509 -0.125684
0.004581 -0.396160 0.018027
0.113947 -0.042151 -0.032441
0.388580 -0.724834 0.052970
-0.657414 0.247433 -0.035314
0.073302 -0.359541 -0.141087
0.215323 0.063987 -0.041338
0.632421 0.131526 0.003433
-0.382111 0.215721 -0.011936
-0.098231 -0.322147 0.066952
-0.385901 -1.016435 -0.016004
-0.157857 -0.498124 0.007243
0.891069 0.296215 -0.071362
-0.084853 -0.267173 0.148136
-0.006521 -0.483736 -0.010262
-0.106826 -0.010327 -0.114681
-0.196772 0.110300 -0.087326
-0.111328 -0.183195 0.047395
0.022197 -0.242076 -0.073289
0.181514 -0.757243 -0.051448
-0.214727 -0.799959 -0.083809
0.371637 -0.743251 0.089169
0.250728 -0.386789 0.089665
0.018890 0.058190 -0.006840
-0.100481 0.312160 -0.071938
-0.159583 -0.022337 0.158417
0.419015 -1.022249 -0.021279
0.771859 0.210083 0.020418
-0.507846 -0.879968 0.039804
0.054229 -0.031164 -0.153869
0.038362 -0.188099 0.002886
0.238926 -0.450410 0.017830
-0.232890 -0.631773 -0.073323
-0.260463 -0.631862 0.154878
0.440810 0.217045 -0.061624
-0.207568 0.247121 -0.100914
-0.033543 -0.345184 -0.130402
-0.204820 0.184131 0.056213
-0.081364 -0.157436 -0.142703
-0.020172 -0.042743 0.026935
0.213527 0.256495 -0.071175
-0.150510 -0.166051 0.078791
0.004036 0.300745 0.123482
0.195668 -0.410898 0.101834
-0.009185 0.374508 0.008291
-0.167120 0.298888 -0.008421
0.360005 -0.670916 -0.128889
-0.126063 -0.219626 0.161654
-0.443078 -1.059607 -0.040143
-0.235169 -0.565376 0.023018
-0.125222 -0.152888 0.138251
0.092599 0.205552 0.098998
-0.214243 -0.483721 -0.092222
0.013157 -0.338474 -0.012924
0.038185 -0.325310 0.013482
0.644210 0.146163 0.013650
-0.403956 -1.063314 0.013000
0.095086 -0.440226 -0.026706
0.106212 0.353362 0.049211
-0.108056 -0.212114 0.126308
-0.212950 -0.506736 -0.059419
0.631992 0.213935 0.015451
0.181077 0.031246 0.048055
-0.579125 -1.133188 -0.052603
0.134130 0.211203 -0.013165
-0.148449 -0.402971 -0.001257
-0.024106 -0.183599 0.135825
0.160188 -0.557106 0.020748
-0.176010 0.198213 0.096237
-0.137324 -0.004844 -0.015455
-0.146636 0.188402 0.065069
0.198876 0.296734 0.038409
0.242408 -0.157856 0.061196
0.879623 0.276047 -0.082280
0.104455 -0.430624 0.040392
-0.120856 -0.231249 -0.115720
-0.121712 0.279780 0.049472
-0.503826 -0.789528 -0.049131
-0.209573 -0.489750 0.015988
-0.058261 0.081106 -0.081763
0.084867 -0.415136 0.062084
-0.460879 -1.082543 0.080247
0.207854 -0.453753 -0.070283
-0.093349 0.110084 0.004490
-0.338819 0.252755 -0.000639
0.056535 -0.154661 -0.133050
-0.469267 -0.881983 -0.073512
-0.209196 -0.003838 0.081146
0.164361 -0.568278 -0.107157
0.272048 -0.586283 0.058411
0.100869 -0.061457 -0.033941
0.389789 -0.895954 0.026744
-0.145299 -0.134407 0.054221
-0.083911 -0.296342 -0.115293
-0.001726 -0.306766 -0.093280
-0.252428 0.228334 0.056832
-0.058486 -0.357613 -0.065488
0.154021 -0.557763 -0.002688
0.135515 0.427501 0.041446
-0.893251 0.228450 -0.112635
-0.294740 -0.785991 -0.098493
0.135185 -0.439343 -0.211933
0.517800 -1.003528 0.018890
-0.152025 -0.549331 0.090286
-0.087781 0.069519 -0.044662
0.166676 -0.355739 0.069589
-0.148808 -0.420494 -0.131758
-0.168008 0.149534 0.109573
-0.128872 -0.345282 0.140520
0.173182 -0.508948 0.088003
-0.119213 -0.029763 0.060446
-0.081338 -0.096463 -0.009053
-0.060481 -0.162560 0.029850
0.308770 0.140709 -0.026075
0.019306 0.061257 0.010696
0.187507 -0.183947 0.115479
0.222589 0.207769 0.019556
0.095935 0.088155 0.063168
0.526546 -0.978126 0.011671
-0.214688 -0.447103 -0.131671
0.019891 0.100423 0.171832
-0.013046 -0.184057 -0.075491
-0.099308 -0.214536 -0.081916
0.031210 -0.384256 -0.077062
0.051721 0.206545 -0.010604
-0.193956 -0.327393 0.074512
-0.199993 -0.374152 0.018145
-0.154398 -0.456576 -0.014820
-0.134828 -0.552323 0.029833
0.121189 -0.437374 0.006310
-0.374883 -0.593182 0.071427
-0.216932 -0.418982 -0.028076
0.164170 -0.132608 -0.047312
-0.320920 -0.674046 -0.045081
-0.103687 -0.517790 -0.059199
0.228607 0.145493 -0.004917
-0.103684 -0.432058 -0.192572
-0.344379 -0.876224 -0.064758
0.200331 -0.659046 0.035063
-0.097710 0.523831 -0.053722
0.042647 -0.094239 0.099239
0.466907 -0.733399 -0.079516
-0.081746 -0.109521 0.127080
0.073236 -0.365557 -0.047387
0.098865 -0.068575 0.012053
-0.029120 0.217246 0.051217
0.028262 0.100989 -0.042580
-0.048061 0.127525 -0.061581
0.538040 -1.009711 0.011413
0.175454 0.230206 0.033214
0.014168 -0.401551 0.166490
0.101279 -0.446232 -0.014883
-0.140274 0.075214 0.049848
-0.466130 0.157413 -0.042606
0.010632 -0.478524 0.115939
-0.527679 -1.103312 0.176141
0.051134 0.444309 0.147369
0.096250 -0.016602 0.054579
-0.212597 0.191013 -0.078095
-0.114429 -0.417008 0.139200
-0.078023 0.160403 0.077723
-0.210831 0.056914 0.088494
-0.431210 -0.943479 -0.138583
0.369480 -0.679882 0.018661
0.027438 -0.389622 0.088245
-0.074459 0.164220 0.101999
0.434495 -0.907177 -0.005335
-0.023630 0.079319 0.140935
-0.162239 -0.144607 0.084799
0.141846 -0.406272 -0.189963
-0.068882 0.168323 -0.039301
0.166732 -0.377392 0.125949
-0.575525 0.226760 0.077425
0.091477 -0.490239 0.068709
-0.519989 0.156172 -0.086701
0.508597 0.303676 -0.104521
0.411826 0.196722 -0.053698
0.170187 -0.279921 0.111287
0.353693 -0.669137 0.037747
-0.155904 -0.414461 0.083140
-0.042446 0.477604 -0.028604
-0.078641 -0.180002 0.023841
-0.080596 -0.282838 -0.179409
-0.003986 -0.430307 -0.222926
-0.281397 -0.834880 -0.132687
0.177343 0.041893 0.069451
-0.115834 -0.121580 -0.070035
-0.062192 0.151480 0.113903
-0.019718 0.004494 -0.137157
-0.776204 0.190497 -0.021674
-0.361542 -0.913674 -0.091392
0.390509 0.252266 -0.134150
-0.451133 -0.919573 0.009413
-0.076555 -0.018651 0.169030
0.413995 0.158331 -0.115131
0.090005 -0.051562 -0.037356
0.661351 0.178870 0.013077
0.030517 -0.073974 0.065983
-0.361952 -0.873993 0.105598
-0.287260 -0.758664 0.067084
0.107183 0.144063 0.008041
-0.017624 0.114695 -0.131172
-0.208748 0.105973 -0.061025
-0.417639 -0.751400 -0.047924
-0.347796 -0.748304 0.028607
-0.181869 -0.409605 0.133754
0.115197 -0.327651 0.104611
-0.029710 -0.026551 0.118714
-0.000359 -0.188702 0.151759
0.085185 -0.231406 0.095689
-0.048599 0.365167 0.104538
0.085020 -0.063375 -0.028201
0.017120 -0.398831 -0.117256
-0.611864 0.268702 0.052557
-0.831724 0.205188 -0.098927
-0.907617 0.195471 -0.017474
-0.294115 -0.434032 -0.037580
0.020197 0.176792 -0.069737
-0.031105 -0.055300 0.131406
-0.043718 0.594408 -0.008777
0.885276 0.218876 -0.064754
0.090016 -0.295785 -0.013138
0.111445 0.067732 -0.089968
-0.178820 -0.520947 -0.169826
0.077237 0.522923 0.050168
-0.165909 0.056365 -0.003673
0.496804 0.166104 0.050124
-0.148181 -0.246500 0.020061
-0.173793 -0.614899 0.041502
-0.459743 -1.115254 0.136984
0.039635 0.166805 -0.046067
0.125446 -0.011368 0.004311
0.438359 -0.914110 0.030532
-0.069427 -0.173970 0.000937
-0.295221 -0.408341 -0.054037
0.160836 -0.436931 0.050842
0.175761 -0.628549 -0.054826
-0.051963 0.041379 -0.054160
0.607949 -1.064541 0.074139
-0.391668 -1.021787 -0.037958
-0.291319 0.164546 0.028196
-0.470644 -0.709765 0.021844
-0.040773 0.323487 -0.030905
-0.452056 -1.029485 0.001953
0.006525 0.313012 0.081676
0.200793 -0.189145 -0.016517
-0.117485 0.100597 0.109121
-0.001876 0.006777 -0.120806
0.399007 -0.941952 -0.058990
-0.022649 0.312131 0.061500
-0.171021 -0.372800 -0.151737
0.705777 0.180932 -0.052817
0.148313 -0.049894 0.129843
0.494996 0.160577 -0.002605
0.120833 0.071342 0.037862
0.071553 0.017956 0.068719
0.160310 0.139304 0.053477
-0.048350 -0.203638 0.150789
0.472231 -1.013753 -0.002986
0.049933 -0.070981 0.007987
0.015437 0.424748 -0.068716
-0.027178 -0.072890 0.116346
0.385196 -0.695721 -0.010235
-0.082395 0.281052 -0.044123
0.963714 0.248735 -0.047794
-0.406530 -0.840342 -0.035690
0.042004 0.382607 0.134739
-0.220632 0.186467 -0.042231
-0.129119 -0.441959 0.041658
0.458078 -0.850140 0.002998
-0.210863 -0.262536 -0.002677
-0.198811 -0.433104 0.104068
0.089000 -0.161157 0.154857
-0.039397 0.277909 -0.027511
0.133837 0.223957 0.033583
-0.577701 0.217792 -0.107768
0.392528 -0.931257 -0.059111
-0.058106 0.294267 -0.067090
0.023909 0.336452 0.143253
0.184311 -0.339130 -0.190566
-0.049797 0.516422 0.102281
0.418070 -0.833123 0.081432
-0.207339 -0.611780 -0.019648
0.446783 -0.968115 0.009049
-0.020075 -0.130742 0.015987
0.022915 -0.122728 0.056047
0.028289 -0.243030 0.108981
0.224384 -0.455106 0.089905
0.049988 -0.273316 0.136844
0.185704 -0.253233 -0.081439
-0.039092 -0.558449 -0.078489
0.175339 -0.530826 0.020756
-0.151974 -0.254445 -0.088138
0.109946 -0.520686 0.020845
0.119280 -0.402105 0.122551
0.151877 -0.447422 -0.163143
-0.243761 -0.558196 -0.101610
0.646455 0.198159 -0.078971
0.283314 0.202319 0.014566
-0.087393 0.318707 0.081669
-0.005276 -0.231305 0.112440
0.324533 0.196026 -0.029646
0.163092 -0.612528 0.050128
0.031573 -0.313389 0.120238
-0.267790 0.213580 -0.067436
0.304612 -0.738654 0.025384
-0.139858 -0.623860 0.021201
-0.215842 -0.094585 0.085276
-0.078640 -0.000901 0.120025
0.142981 0.245050 0.014074
0.171441 0.033997 0.086444
-0.062773 -0.200184 0.033774
-0.036518 -0.103886 -0.079782
-0.103875 0.161625 0.088335
-0.086275 -0.518168 -0.016362
0.181643 -0.123072 -0.034202
-0.153051 -0.286145 0.002486
0.151638 0.109251 -0.052638
0.134084 -0.064276 -0.018698
0.158449 -0.220332 -0.014869
0.041622 -0.315167 0.115299
0.127611 0.389664 0.018575
-0.237352 -0.612478 -0.054481
0.505776 -1.105792 0.115525
-0.121980 -0.036783 0.167369
-0.193209 -0.630966 -0.116238
-0.256929 -0.461819 -0.052719
0.233589 -0.471961 0.055411
0.024025 0.043829 -0.082835
0.128800 -0.056002 -0.050390
-0.097383 -0.034119 -0.060552
0.130838 -0.613922 -0.051081
-0.096023 -0.422426 0.065003
0.039254 0.407444 0.174022
-0.208735 0.279182 0.034815
-0.045400 0.275105 -0.043784
-0.112467 0.080932 0.074155
0.525769 -1.001768 0.146296
-0.123876 0.297919 0.034247
0.004533 -0.187314 -0.087445
0.081428 0.010444 0.075738
-0.868941 0.251419 -0.075295
0.084499 -0.370663 -0.052721
0.499582 -0.970466 -0.081947
-0.416004 -0.763229 -0.074594
0.129449 -0.404448 -0.178824
-0.162493 -0.425780 -0.022924
-0.085275 0.118603 -0.026342
0.079764 -0.413859 -0.037287
-0.203221 -0.167263 0.054208
0.663938 0.168523 -0.003803
-0.085763 -0.220223 0.155552
0.107820 -0.307638 -0.160608
-0.129170 -0.404846 0.045413
-0.094779 0.288637 0.060823
-0.126303 -0.287329 -0.108740
-0.151980 0.109300 0.045100
0.097675 0.464944 -0.025933
0.288493 -0.536450 -0.060910
0.145153 -0.245371 -0.211688
-0.495648 -1.090404 0.110959
-0.076070 0.291488 0.004600
-0.286190 -0.681092 -0.038599
-0.005350 -0.141890 0.115022
0.171269 0.113256 0.048213
-0.566083 0.209637 -0.027893
0.552570 -0.977761 0.147900
0.014674 -0.455141 0.116449
0.055133 0.023972 0.117326
0.024383 0.031380 -0.214189
0.223577 -0.433357 -0.032178
-0.016944 0.553786 -0.022958
0.494363 -1.000489 0.041238
-0.017876 -0.512678 0.024839
0.218165 0.141586 -0.010953
0.516837 -1.021656 0.105389
0.183919 0.104624 0.048238
0.033638 -0.043171 -0.129704
-0.143093 -0.240729 -0.055636
0.074704 0.235822 -0.020800
-0.084385 0.141643 0.055934
-0.201094 -0.706012 0.095820
0.699838 0.226037 -0.013547
0.490976 -1.174695 0.030507
-0.068059 0.376631 0.046443
-0.032721 0.062855 -0.053830
0.005588 0.089115 0.057993
0.253147 0.150018 0.071180
-0.920213 0.269624 -0.012160
-0.084155 -0.160373 0.036229
0.258265 -0.581563 0.063080
0.075781 -0.281032 0.000327
0.504932 -1.068828 -0.082130
0.443166 0.197450 0.045959
0.071775 -0.220528 0.025871
-0.058479 -0.272067 -0.109500
0.001051 0.307235 -0.028227
0.068770 -0.041170 0.218377
0.074960 -0.436301 0.189890
-0.720457 0.140893 0.034242
-0.054129 -0.150573 -0.049509
-0.203922 -0.443110 0.117302
0.176007 0.208177 -0.073013
0.180911 -0.422953 0.034198
0.207894 -0.453128 0.165452
-0.317761 -0.420761 0.074354
0.112225 -0.441558 -0.001471
-0.130480 0.233035 -0.071233
-0.114618 -0.042101 0.128034
-0.495886 -1.024130 0.082284
-0.010124 0.618785 0.054664
-0.204336 0.260059 0.021648
-0.278831 -0.689035 0.047312
-0.172942 -0.004116 0.144836
-0.091388 -0.486147 0.150453
-0.198674 0.076118 -0.001796
-0.167048 0.215213 0.085048
0.159558 -0.176301 0.061479
0.045698 -0.488865 0.062454
-0.133732 0.323415 0.002759
0.031439 0.427524 0.037553
-0.101753 -0.180039 -0.213005
0.325001 -0.864540 -0.067485
0.157497 -0.490000 -0.082530
-0.127008 0.357535 -0.071411
0.392967 -0.688142 -0.138229
0.162123 -0.519606 0.011592
-0.426650 0.266501 0.017153
-0.074742 -0.401695 -0.094119
-0.206984 -0.315457 0.108435
0.568870 -1.024957 -0.012019
0.025255 -0.086848 0.121958
-0.209638 -0.275380 0.068802
0.115868 -0.549760 0.046881
-0.067350 0.166207 0.055491
-0.037663 0.061203 0.033356
-0.432609 -1.064025 -0.043476
-0.360373 -0.712245 -0.098877
-0.106285 -0.109575 -0.086898
-0.309736 -0.930248 -0.046341
-0.032706 0.256865 -0.020125
0.068504 0.439669 -0.016036
-0.162655 -0.244354 0.065931
0.271646 0.164101 0.015846
-0.108757 -0.343019 0.077566
0.338072 -0.800495 -0.055328
0.109481 -0.039905 -0.043021
0.031208 -0.127900 0.031007
0.072737 0.351685 -0.070607
0.183225 -0.486693 -0.027009
0.438853 -0.847445 -0.056277
0.013370 -0.204770 0.138937
0.096425 -0.638702 -0.050548
-0.167865 0.251144 -0.007991
-0.104549 0.290487 0.049762
-0.072630 -0.292055 0.203710
-0.051746 0.004779 -0.073437
-0.072254 0.102483 0.164044
-0.155905 -0.428350 0.126235
0.553100 -1.094507 0.167170
-0.089037 0.084246 -0.054228
-0.141970 0.245482 -0.084925
0.142554 0.180102 -0.086731
-0.522424 -1.062948 0.088770
0.425527 -1.059993 0.106880
-0.196199 -0.245240 0.019084
-0.019514 -0.354245 0.062387
0.215762 -0.547843 0.006408
0.056221 -0.435039 -0.134307
0.260484 0.208070 -0.106451
0.233537 -0.182293 0.100225
0.253057 0.298753 -0.014362
-0.071445 0.006612 -0.092395
0.323528 -0.678793 0.035740
-0.031182 0.138884 -0.043645
0.204474 -0.243987 -0.060489
-0.171903 -0.391637 0.013057
0.476485 -1.097381 0.121779
-0.443412 -0.916193 -0.158041
-0.529314 0.243768 0.028325
0.009264 0.462177 -0.150937
-0.092696 -0.485887 -0.084597
0.380393 -0.728024 0.020554
0.189596 -0.026329 -0.086658
-0.151861 -0.269153 0.089090
0.091142 0.207975 -0.135303
-0.040139 0.059905 -0.142645
0.035076 -0.453777 0.094951
-0.115656 0.017843 0.115818
-0.237436 -0.683629 0.107141
-0.046601 0.190307 -0.007196
0.137217 -0.142083 -0.016788
0.407028 0.285132 -0.008297
-0.189348 -0.153341 0.070951
0.038474 -0.293552 0.131829
-0.010818 0.028687 0.003638
0.170698 -0.356422 -0.188958
0.117704 0.043412 -0.069676
-0.064709 -0.451488 0.035410
-0.359902 -0.851398 -0.028255
-0.059412 0.064647 -0.055802
-0.021745 -0.330788 -0.110757
-0.163950 -0.232341 -0.084173
-0.165489 -0.291043 0.072222
0.004169 -0.125159 -0.027069
0.019055 -0.449296 0.009424
-0.225395 -0.589398 -0.023270
0.231147 -0.535697 0.076787
-0.651897 0.266017 -0.044514
0.151581 -0.525961 -0.016879
0.017737 -0.208610 -0.165764
0.220281 -0.545727 -0.080098
0.023880 -0.214397 -0.139303
-0.091168 -0.323640 -0.110132
0.068426 0.427737 0.045957
0.029529 -0.139872 -0.130023
-0.507311 -0.757055 -0.051397
0.033813 -0.217832 0.106264
0.493433 -1.115301 -0.065082
-0.017361 -0.186944 -0.032008
0.003540 0.050137 -0.033552
0.122940 -0.409234 -0.038758
-0.090798 0.006726 -0.165885
0.107438 -0.181888 -0.073383
0.154557 -0.406075 -0.052061
0.163830 -0.096923 0.011335
-0.259713 -0.206812 -0.030113
0.018938 0.094945 0.184150
-0.211062 -0.376720 -0.083599
0.097359 -0.584355 0.064198
0.375248 -0.660115 0.009680
-0.147726 -0.094953 -0.076173
0.147404 -0.237351 -0.132724
0.073583 -0.124627 -0.064783
0.149297 -0.147123 0.077347
0.183636 -0.586660 -0.156011
-0.131713 -0.580610 -0.022114
-0.391327 -0.884709 0.015026
0.076180 0.199343 -0.050664
-0.907326 0.184037 -0.011882
-0.386498 -0.863733 0.039625
-0.090918 0.249812 0.034418
-0.221642 -0.340066 0.047123
0.522745 -0.991357 0.174458
-0.480252 0.251436 -0.101095
-0.180919 -0.061271 -0.029173
0.181138 -0.546540 0.040250
0.055113 0.083529 0.009375
0.087995 -0.369362 -0.185762
-0.165186 0.056656 -0.027683
0.208977 0.147525 -0.024488
-0.284650 -0.730859 -0.101908
0.030237 -0.429931 -0.138452
-0.098102 -0.241735 -0.188732
-0.293320 -0.519841 0.044449
-0.113968 0.115472 0.023371
-0.382112 -0.924906 0.013011
0.439348 -0.826896 -0.032613
-0.163051 0.217474 -0.111109
-0.072153 0.100834 0.129916
-0.596278 -1.031312 0.208355
0.126484 -0.241204 -0.144845
0.064574 -0.515928 0.135410
0.056386 0.407469 0.025841
-0.167133 -0.542190 -0.022133
-0.604844 0.227973 -0.005493
-0.048778 0.526016 0.111049
-0.490918 -1.088651 0.006514
-0.119448 -0.557585 -0.026744
0.394353 -0.774924 -0.032054
-0.204006 -0.452332 -0.016301
-0.020316 -0.122881 0.026629
0.478197 -1.087821 0.049024
0.035631 -0.550463 -0.000875
-0.045781 -0.091804 0.036021
-0.099590 -0.128732 0.068569
-0.024098 0.580810 -0.039742
0.052507 -0.539099 0.006962
-0.117887 0.099391 0.033276
0.189650 -0.326282 -0.027001
-0.066422 0.354096 -0.048084
-0.210020 0.206861 -0.053555
-0.074112 -0.293582 -0.203001
0.009541 0.162620 0.015471
-0.375236 0.186363 -0.048118
-0.025217 -0.171872 0.086331
-0.535085 -0.997046 0.002953
0.544696 -0.884070 -0.072039
0.891714 0.205335 -0.065044
0.178719 0.116395 -0.009511
-0.200071 -0.315697 0.074887
0.023027 0.417885 0.139216
0.102388 -0.341201 -0.113946
-0.005024 0.600366 -0.047113
0.118983 -0.331479 0.033386
-0.130321 -0.272899 0.082541
0.294289 -0.780095 -0.036690
0.144832 -0.308156 -0.162479
-0.027468 -0.488034 -0.165862
-0.105236 0.057185 -0.114295
-0.124619 -0.056336 0.160620
-0.329097 -0.651427 -0.040222
-0.082274 0.135557 -0.041326
0.244241 -0.672769 0.120210
0.023740 0.147345 0.092696
0.366185 -0.964427 -0.018658
-0.490676 -0.903707 0.011478
-0.511879 -1.104529 0.146440
0.146951 -0.187735 -0.051354
-0.178626 0.087810 -0.025233
-0.398616 0.270911 -0.082988
0.221282 -0.082457 0.005718
-0.100527 -0.529802 -0.081315
-0.033822 -0.343633 -0.049169
0.187545 0.165149 0.051968
0.111065 -0.037646 0.056481
-0.292359 -0.532620 0.052247
-0.064354 0.214428 -0.015575
0.325459 -0.784651 -0.129830
0.045105 0.019173 -0.119036
-0.201467 0.193882 0.088750
0.559953 0.225775 -0.079067
0.059043 -0.076415 0.005674
0.389333 0.123806 0.042095
-0.114751 -0.083387 -0.053556
-0.043574 -0.097995 -0.119297
0.516067 -0.955891 0.160124
0.289913 -0.320493 -0.047055
-0.135200 -0.088323 -0.122706
-0.031141 -0.061082 -0.235510
0.000839 -0.112680 -0.089024
0.069466 -0.443532 0.115773
-0.431578 -1.091465 0.097429
-0.200508 -0.105251 -0.035251
-0.137339 0.074874 -0.107860
-0.193364 -0.676720 -0.005142
-0.186784 -0.379341 -0.020331
0.176901 -0.444792 -0.002271
-0.405900 0.234009 -0.078121
-0.716607 0.263465 -0.051068
-0.317155 0.272009 -0.065674
0.025388 0.021256 0.119832
-0.073925 -0.167533 0.029154
-0.526152 -1.053148 -0.118076
-0.071561 0.205602 0.020352
0.323746 -0.677314 0.096168
-0.247204 -0.402251 -0.095373
0.477355 -0.801882 -0.078214
-0.013217 0.524543 -0.143208
-0.854791 0.202338 -0.040610
-0.145599 -0.353764 -0.069243
0.084992 -0.242013 -0.128626
-0.030058 0.117658 -0.109431
-0.203214 -0.586588 -0.071981
-0.393603 -0.787761 -0.033809
-0.150252 0.019648 0.029375
0.134784 0.120216 -0.022054
-0.034820 -0.156898 -0.113961
0.270699 -0.458871 0.015101
0.042377 -0.323195 0.093164
-0.363789 -0.609086 0.074102
0.040920 -0.395513 0.056819
-0.018741 -0.159456 0.152384
0.578944 -0.997768 0.036137
0.444513 0.225417 0.000039
0.002124 0.141139 0.153285
0.058308 0.143378 -0.070102
-0.062390 0.612300 -0.018506
0.169989 -0.588469 -0.015766
-0.110923 0.128201 0.033319
0.137635 -0.453700 0.041989
0.096777 0.206609 -0.061272
0.072369 0.431249 0.064384
0.270704 -0.549934 0.093969
0.284740 0.114656 0.023202
-0.009871 -0.196726 -0.092813
-0.637441 -1.058011 0.183592
0.108830 0.128615 0.085346
0.101802 -0.548263 0.116079
-0.160496 -0.261363 0.136546
0.120102 -0.431775 -0.129818
-0.205629 -0.308036 0.122655
0.378331 -0.573551 -0.032314
0.353089 -0.765369 -0.110709
-0.148846 -0.414893 -0.118679
0.811116 0.199793 0.000364
-0.015083 -0.131810 -0.081239
-0.157851 0.125573 0.053398
0.062778 0.247400 -0.131797
0.062910 -0.520679 0.040582
0.537391 -0.985851 0.178528
-0.200422 -0.434056 -0.018344
0.164701 0.292762 -0.006872
0.055165 0.353258 -0.047396
-0.188006 0.130153 -0.009128
-0.077421 -0.100391 -0.180026
0.199382 -0.335324 -0.217255
-0.056489 0.296971 0.034541
0.030608 -0.490416 0.015168
-0.167487 -0.551285 -0.043999
0.060531 -0.333897 -0.062124
0.023736 0.141104 -0.108486
0.041240 0.433178 0.129761
0.081976 0.312450 -0.081803
0.026262 -0.176649 0.014224
0.054565 0.045482 -0.227065
-0.181059 -0.145991 0.116316
-0.165820 -0.482489 0.097656
0.302231 0.195875 -0.003166
-0.505748 -1.127147 0.090713
-0.223287 -0.414216 -0.148651
-0.278897 -0.594266 -0.001466
-0.032124 -0.059227 -0.095398
0.048918 -0.082537 0.031180
0.007257 0.199466 -0.058338
-0.199941 0.075819 0.048724
-0.415957 -0.799095 -0.026203
0.109997 0.180084 -0.092642
-0.072215 -0.241171 -0.114679
-0.490346 0.213033 -0.025751
0.534592 -1.093676 0.121348
-0.467373 -0.860482 0.036227
0.160797 0.190896 -0.102811
0.046878 -0.334909 0.018362
0.165279 -0.317155 0.113044
0.207228 0.176490 0.055663
0.405070 -1.036499 -0.097778
0.075929 0.325160 -0.073879
0.038250 0.491619 -0.037740
-0.025617 0.410120 0.118366
-0.385057 -0.661918 -0.040357
0.105529 0.025074 0.099607
-0.600512 0.257071 0.047409
0.024169 -0.048133 -0.067955
0.665733 0.273071 -0.052384
0.298209 -0.519429 -0.096880
-0.026389 0.119568 -0.138863
-0.003733 0.057736 0.029253
-0.817390 0.144182 0.073112
0.239789 -0.317857 0.048541
-0.021379 0.103421 -0.004977
-0.066367 -0.224172 -0.133335
-0.043602 -0.213212 -0.212644
0.058354 0.438470 0.041887
-0.228250 -0.495211 -0.110907
-0.232267 0.082514 -0.080529
0.100050 0.111195 0.008861
0.098552 -0.172443 -0.000779
-0.176506 -0.347385 -0.082287
0.077520 0.015891 -0.086542
0.280077 -0.694360 -0.084342
0.015685 -0.098785 -0.148368
-0.169412 -0.004354 -0.117986
-0.402326 -1.029920 -0.009729
0.195384 0.122186 0.140652
-0.013172 0.462729 0.178021
0.183486 -0.322337 0.182361
0.383465 -0.791318 -0.022598
0.027217 -0.186295 0.007078
-0.202216 0.282295 0.025920
-0.061698 -0.253462 -0.145615
0.117803 -0.501747 -0.033778
0.632794 -1.034489 0.146280
0.760377 0.176967 -0.088682
0.050647 0.144110 -0.113546
0.237425 -0.469371 -0.089463
-0.132099 0.508708 0.089169
0.194551 0.133476 -0.003745
-0.176470 -0.404752 -0.115085
0.192793 -0.102210 -0.039964
0.202808 -0.380866 -0.012800
0.032523 -0.061907 0.067428
-0.486022 0.267935 -0.030278
-0.116642 -0.028405 -0.086369
-0.424589 -0.954222 -0.113212
0.135409 0.312293 -0.082283
0.347923 -0.911365 0.083653
0.514922 -0.931174 -0.033640
-0.164387 0.147196 0.065674
0.229630 -0.554566 -0.067243
-0.161914 -0.238405 -0.150233
0.375138 0.119595 -0.036847
0.091741 -0.199424 -0.172730
-0.433199 0.191187 -0.035657
0.054193 -0.129826 0.111489
-0.079029 -0.152765 -0.129697
0.430162 0.224249 -0.001965
0.194986 -0.548990 0.052309
0.167700 -0.395742 -0.201677
-0.025839 -0.437045 0.121024
0.196504 0.131844 0.122352
-0.069121 0.491202 0.030654
0.064597 -0.360980 -0.037385
-0.170271 0.246800 0.011170
-0.433479 -1.075513 -0.058267
-0.212756 0.184199 -0.014986
-0.239994 0.214888 0.071502
0.084503 0.221981 0.077403
-0.049391 -0.289025 -0.115665
-0.013031 0.131314 -0.003428
0.420101 -0.826771 -0.037459
-0.332097 0.329136 -0.032219
-0.505373 -1.075773 0.193145
0.004032 -0.099980 -0.185966
0.034141 -0.154865 -0.166710
0.001699 0.099065 0.105581
-0.047516 -0.403924 0.153231
-0.007785 -0.133316 0.000368
0.480607 -1.071749 0.068534
-0.009444 -0.221974 -0.112622
0.130170 -0.244065 -0.004511
0.242792 -0.462827 -0.042476
-0.035003 0.154098 0.066092
0.015109 -0.034465 0.020195
0.124117 -0.196439 0.067246
